# .PCD v0.7 - Point Cloud Data file format
VERSION 0.7
FIELDS x y z normal_x normal_y normal_z curvature
SIZE 4 4 4 4 4 4 4
TYPE F F F F F F F
COUNT 1 1 1 1 1 1 1
WIDTH 636
HEIGHT 1
VIEWPOINT 0 0 0 1 0 0 0
POINTS 636
DATA ascii
1.769508 2.0672095 1.2642274 0.75395477 0.65105885 0.087605044 0.087004326
1.7761718 2.0419538 1.3191453 0.73481339 0.67351168 0.080195159 0.096590839
1.7764875 2.0851965 1.2043216 -0.8797186 -0.47549424 0.00060617446 0.11539122
1.7875227 2.0675182 1.2399054 -0.90669876 -0.40548807 0.11608952 0.10732829
1.4153651 2.1885216 1.5595963 -0.36448783 0.79125983 0.49097502 0.087443449
1.392572 2.2308481 1.4928296 -0.25225797 0.83593738 0.48741627 0.096042149
1.4517671 2.1397505 1.6357241 0.095994584 0.92698586 0.36260489 0.10351317
1.4516186 2.1451602 1.6322122 0.092812285 0.90082127 0.42415434 0.10077967
1.4080297 2.2292013 1.4347615 0.19984142 0.88036227 0.43014619 0.085445501
1.4371978 2.2247126 1.4301629 0.39494598 0.86545473 0.30823019 0.03456926
1.4410771 2.2149663 1.4386659 0.4252269 0.8454439 0.32312 0.025630595
1.4670652 2.1839504 1.4604063 0.47017235 0.83591533 0.28316689 0.0069716545
1.520749 2.1098604 1.616186 0.50826615 0.82187647 0.25726369 0.0016849128
1.5133559 2.138288 1.530066 0.49339008 0.83212489 0.25324765 0.0013858387
1.532735 2.108361 1.5881248 0.5102967 0.82103711 0.25592047 0.0015618518
1.5132793 2.1418655 1.507839 0.49633688 0.82979125 0.2551395 0.0019118624
1.5454341 2.1349256 1.5068669 0.5027023 0.8274616 0.25019535 0.0016728684
1.5249623 2.1587396 1.443716 0.50283849 0.82422578 0.2603946 0.0014142724
1.5219196 2.1843014 1.3692423 0.49905458 0.82918566 0.25178525 0.0017791911
1.53956 2.1565888 1.4125428 0.50503993 0.82102454 0.26618296 0.0015877112
1.5880231 2.1010063 1.5041199 0.50116175 0.82410938 0.26397094 0.0016026592
1.5842956 2.1138752 1.489306 0.5064373 0.82325578 0.25645909 0.0018160618
1.5975012 2.1196697 1.4372718 0.50401491 0.8212164 0.26753059 0.0021126324
1.5867459 2.1399658 1.3855186 0.50165039 0.82034427 0.27455792 0.0026434953
1.6100012 2.1224232 1.416667 0.50027257 0.82552779 0.26121092 0.0027172579
1.6115001 2.1200523 1.3974853 0.49989027 0.82224774 0.27206293 0.0030114306
1.634729 2.1099024 1.3854244 0.49529111 0.82392639 0.2753765 0.0034901863
1.6445762 2.0796194 1.4518473 0.48956087 0.83350819 0.25611374 0.0030931935
1.6297973 2.1420105 1.3225862 0.50190663 0.82304364 0.26587391 0.0032762345
1.6717781 2.0951822 1.3947163 0.48915759 0.82946283 0.26965979 0.0030170397
1.6815537 2.0700541 1.4492633 0.48363057 0.83774495 0.2535449 0.0025256611
1.7118977 2.0347512 1.4947345 0.49117056 0.83260429 0.25597182 0.0024689108
1.701322 2.0879433 1.3598785 0.49526951 0.82800174 0.262909 0.0034131352
1.6850146 2.1136003 1.303 0.4993352 0.82712376 0.25793526 0.0033109041
1.7076834 2.0943992 1.3151011 0.51063669 0.82452327 0.24374478 0.0038846501
1.7297033 2.0600266 1.3778923 0.51144427 0.82159793 0.25179663 0.0043606409
1.7506167 2.0407598 1.4081023 0.52770293 0.81601882 0.23588747 0.0038971156
1.7564291 2.0490811 1.3539736 0.56647468 0.7897557 0.2353556 0.017114663
1.7927319 1.9997907 1.4633117 0.64075518 0.74377275 0.1903547 0.038818944
1.7992374 2.0044055 1.4080529 0.73856407 0.65555048 0.15740611 0.059535235
1.8003353 1.9921789 1.4293118 0.78994858 0.60968745 0.065287963 0.087940596
1.7907239 2.0481408 1.3031352 0.7530542 0.65421891 0.07004936 0.088416308
1.7833055 2.0579972 1.2641544 0.8172676 0.57623672 0.0049975407 0.082192101
1.8008784 2.0413172 1.2795388 -0.9478296 -0.27033526 0.16893162 0.08945746
1.4149607 2.1841965 1.5642934 -0.28044087 0.81710553 0.50367796 0.085159995
1.4497918 2.1336827 1.6831603 -0.088205107 0.87100232 0.48329583 0.096671388
1.4309913 2.1780887 1.5529189 0.12113318 0.90140384 0.41568977 0.093212403
1.4616395 2.1487503 1.6108818 0.26011857 0.89071202 0.37278727 0.085526943
1.42968 2.2059648 1.4923761 0.22907616 0.89448875 0.38394547 0.079533704
1.4870416 2.1032581 1.6803246 0.35603437 0.85606349 0.37469292 0.04842937
1.5029174 2.1208072 1.6104362 0.49929801 0.82852876 0.25345939 0.0021212571
1.462803 2.1987877 1.4497607 0.46541509 0.83533901 0.29257059 0.0071254759
1.4972976 2.1529558 1.5422478 0.49120089 0.8322199 0.25716096 0.0015903794
1.5287131 2.1104047 1.5977156 0.50642532 0.82392436 0.25432652 0.0018210351
1.5054435 2.1673784 1.4436494 0.50922471 0.82094103 0.25835252 0.0016919026
1.5265998 2.1554451 1.4740255 0.50081545 0.82428432 0.26408193 0.0014510104
1.5393189 2.1273017 1.5227944 0.50184959 0.8256157 0.25788715 0.0011417234
1.5368971 2.1565766 1.431711 0.49812138 0.82489526 0.26725069 0.0013035478
1.5829378 2.0695317 1.6197484 0.51000351 0.82047606 0.25829327 0.0014233234
1.5699199 2.1004074 1.5393643 0.51079124 0.82012999 0.25783524 0.0016895927
1.604715 2.0574455 1.5966046 0.50488824 0.82434374 0.25601828 0.0015165946
1.6153563 2.0678625 1.5497353 0.49740234 0.82761502 0.26008517 0.001391125
1.6371835 2.0441499 1.5874248 0.50223559 0.82752413 0.25092459 0.001730939
1.5842413 2.1308479 1.4081395 0.50454026 0.81979042 0.27089265 0.0019938
1.5928899 2.1415048 1.3846085 0.50002438 0.82059872 0.27675483 0.0025547792
1.6061527 2.1221852 1.4002204 0.50114548 0.82039398 0.27533048 0.0026282987
1.6628674 2.0584881 1.5217004 0.48341721 0.83033431 0.27722326 0.0021016893
1.682592 2.0247831 1.5874521 0.47809017 0.8370862 0.26592553 0.0026096308
1.6773523 2.06497 1.47054 0.49211457 0.83168459 0.25714591 0.002690699
1.6918379 2.0434978 1.4848995 0.48842657 0.8319661 0.26319569 0.0020532426
1.6656519 2.0887189 1.3991938 0.48656088 0.83059984 0.27085501 0.0027125368
1.683093 2.0935981 1.3568316 0.49515405 0.82417345 0.27488267 0.0030732215
1.7013339 2.0618582 1.4168082 0.48748651 0.83441108 0.25712839 0.0027139375
1.7398745 2.0252452 1.4671857 0.51668102 0.81714094 0.25558051 0.0022411253
1.7124201 2.0769463 1.3546543 0.49316061 0.8294934 0.26217061 0.0035410062
1.7306608 2.0733521 1.3404644 0.49968952 0.82859367 0.25247344 0.0040161205
1.7717711 2.0118287 1.4407611 0.59498596 0.78193992 0.18590744 0.023344941
1.7875055 1.9908357 1.4726808 0.66795468 0.72290635 0.17675705 0.050665218
1.7546157 2.0586982 1.3259938 0.58818179 0.78185892 0.20673382 0.029512107
1.801936 1.9894029 1.4718461 0.73243284 0.65644836 0.18060382 0.062349908
1.7893444 2.0063434 1.4110856 0.72612733 0.67017061 0.15365715 0.057702225
1.8092989 1.9954249 1.4067917 0.87658918 0.46499059 0.12399665 0.078579508
1.8384897 1.9747375 1.4242482 -0.93087882 -0.36526403 -0.0068430468 0.080665648
1.8190383 2.0274863 1.3251971 -0.92318124 -0.37614846 0.079048708 0.091697581
1.4556442 2.1165237 1.7277873 -0.11304641 0.90660888 0.40654749 0.11690991
1.4711624 2.1091943 1.7218531 0.16820972 0.91720921 0.36115479 0.088685907
1.4807004 2.0944846 1.7237039 0.17702787 0.9194898 0.3509979 0.083804004
1.4391469 2.1770265 1.5464166 0.28591174 0.90673321 0.30998299 0.061187938
1.4755586 2.1265979 1.630204 0.30737221 0.90088701 0.30647177 0.067179665
1.4694649 2.1640496 1.5353961 0.36974233 0.88224173 0.29144496 0.034003031
1.4934448 2.1240249 1.5979009 0.44357187 0.85742354 0.26089999 0.016720967
1.515879 2.0955698 1.6693265 0.47164422 0.83369499 0.28723583 0.0059852516
1.5252451 2.106225 1.6109333 0.5032872 0.82480073 0.25769329 0.0019977733
1.5438491 2.0731113 1.6659713 0.49169216 0.82777047 0.27024961 0.0022703477
1.5368015 2.1043861 1.6070068 0.50786072 0.82305741 0.2542716 0.0016624781
1.5491787 2.1038063 1.5881453 0.50903296 0.82146817 0.25705156 0.0015448892
1.5338439 2.1442082 1.4869139 0.49914217 0.82947534 0.25065458 0.0014698496
1.544984 2.1341026 1.4791188 0.50153869 0.8252064 0.25979492 0.0015046879
1.5945398 2.0551159 1.6626047 0.51366138 0.81784064 0.2594007 0.0013407981
1.6126152 2.0434852 1.6393211 0.4984971 0.82893234 0.25371584 0.0016715095
1.5976361 2.1048779 1.5049984 0.49918735 0.8253299 0.26389885 0.0015102186
1.611607 2.0658996 1.576061 0.50850713 0.82326013 0.25231567 0.001629843
1.6223966 2.0731876 1.5457789 0.49786574 0.82707971 0.2609002 0.0015221826
1.6590112 2.016993 1.6241457 0.48967654 0.833094 0.25723785 0.0017180662
1.6149884 2.1099441 1.4212012 0.49816072 0.82623667 0.26299971 0.0023442344
1.6442531 2.0721679 1.484702 0.48622945 0.83151728 0.26862603 0.0020651307
1.6973449 1.9955227 1.6166897 0.48016635 0.83862066 0.25720727 0.0020805886
1.6880728 2.0217218 1.5792017 0.47878551 0.83804959 0.26160538 0.002189829
1.6525434 2.0871434 1.416693 0.48988697 0.83178025 0.26106003 0.0025620775
1.6926538 2.0533175 1.4884484 0.48609599 0.83392179 0.26131445 0.0020935673
1.7010702 2.044786 1.4955807 0.48163855 0.83702403 0.25964412 0.00174826
1.6963443 2.0707524 1.4143889 0.48067766 0.83730203 0.26052701 0.0029091055
1.7681674 1.9732571 1.5971348 0.50176477 0.83132464 0.23902185 0.0023363119
1.7267779 2.0345724 1.4700534 0.49970445 0.82732481 0.25657195 0.0023792919
1.718047 2.0500474 1.4038384 0.50116539 0.82679087 0.25544089 0.0025987471
1.788246 1.9659011 1.5558095 0.54461843 0.80717546 0.22772464 0.011465264
1.7866346 1.9957098 1.4857016 0.57341266 0.78309345 0.24075411 0.01700612
1.786518 1.9677596 1.5337682 0.57026237 0.78806108 0.23186336 0.018180145
1.7947963 1.9828804 1.4883418 0.65630043 0.71624571 0.23719598 0.034116909
1.7969035 1.9871157 1.4552506 0.75258732 0.64321905 0.141002 0.076272935
1.8171343 1.9656702 1.5009613 0.66856998 0.7269094 0.15689795 0.056943875
1.8119315 2.0107141 1.3752005 -0.88460702 -0.46612892 -0.013940265 0.08261212
1.8148698 1.9934285 1.4092138 -0.89218044 -0.44501755 -0.077288657 0.076493621
1.8718492 1.9199753 1.5274889 -0.87695241 -0.47088319 0.096039303 0.11337379
1.4265896 2.1595778 1.6495886 -0.15489691 0.8859666 0.43711573 0.10268467
1.4784802 2.0802267 1.778152 0.071447611 0.9271813 0.36773649 0.095004156
1.4780554 2.1084011 1.7064161 0.25533414 0.87261897 0.4163419 0.081591763
1.454393 2.1541717 1.6084423 0.23815802 0.90380025 0.35556412 0.09051495
1.4951149 2.1154156 1.6671736 0.41456157 0.84683311 0.33318526 0.028655315
1.5040725 2.1107748 1.6636577 0.44082296 0.84310263 0.30798221 0.017198352
1.4852949 2.1281247 1.6169851 0.39247844 0.87249535 0.2910541 0.037006944
1.5110201 2.1018043 1.6636101 0.43215519 0.84922779 0.30340415 0.016145965
1.5504507 2.0655167 1.7129924 0.49785167 0.82377529 0.27117872 0.0022329353
1.5474359 2.066617 1.6793429 0.49114046 0.82850987 0.26898396 0.0016737668
1.5285116 2.1219685 1.5574777 0.50226849 0.82395649 0.26233935 0.0012617544
1.5583369 2.0923555 1.6022255 0.50751972 0.82627237 0.24433129 0.0013615261
1.5795265 2.0686693 1.6378731 0.51173604 0.8204993 0.25476894 0.00153825
1.5789622 2.0750737 1.6166911 0.50747782 0.8251608 0.24814506 0.0016443142
1.6221703 2.0287826 1.6829457 0.48746064 0.83511561 0.25488046 0.0017571119
1.6213866 2.02702 1.6819608 0.48750785 0.83509529 0.25485674 0.0017166431
1.6322559 2.0133467 1.7002964 0.49657246 0.82884818 0.25773335 0.0023690807
1.6550378 2.0019083 1.6803069 0.48897061 0.83651978 0.2472702 0.0018568264
1.6017209 2.0907481 1.5004313 0.49013057 0.83127391 0.26221329 0.0019289788
1.6360692 2.0542831 1.5678585 0.49776039 0.82631421 0.26351368 0.0025290914
1.6494073 2.0538688 1.5294125 0.48177931 0.83171272 0.27593955 0.0020993848
1.6988052 1.9913604 1.6637883 0.4863669 0.83472252 0.25823548 0.0016803023
1.6536537 2.0757747 1.4666855 0.49399698 0.83244085 0.25101641 0.002332727
1.7025269 2.003922 1.6086738 0.4811337 0.83874416 0.25498739 0.0022059497
1.706432 1.988034 1.6380703 0.47657618 0.83924776 0.26179832 0.0021261384
1.7081703 2.0151339 1.5405846 0.48969993 0.82760674 0.27433744 0.0029215117
1.7042657 2.0191004 1.5294065 0.48938051 0.8272661 0.27593017 0.0028107136
1.7513789 1.9902763 1.5764046 0.49137142 0.83621323 0.24351913 0.0027151681
1.7437011 1.9899352 1.5843716 0.49405938 0.83656144 0.23679176 0.0031447355
1.7558957 1.9872825 1.5406332 0.49905503 0.82664353 0.26000863 0.0029249697
1.7706836 1.9815259 1.5497751 0.50297982 0.82534343 0.25655296 0.0020702891
1.7577196 1.9960984 1.5119922 0.51231635 0.82073098 0.25284883 0.0029121039
1.7809333 1.9741378 1.5329067 0.5459125 0.8031863 0.23847727 0.0064557712
1.7910334 1.9807123 1.5124165 0.58414376 0.77736485 0.23340949 0.018636167
1.8251268 1.9304541 1.5971224 0.5806644 0.79154366 0.1904925 0.027950417
1.8077909 1.9580325 1.5252075 0.60463011 0.7725209 0.19399476 0.028826624
1.8042349 1.9926386 1.4274378 0.75965935 0.63788223 0.12658589 0.073072366
1.8331214 1.9682989 1.451682 0.87462652 0.48478079 -0.0039942437 0.087704726
1.868919 1.9288902 1.5265696 0.83611256 0.54855633 -0.0013814619 0.098270223
1.8486251 1.9459884 1.4924308 0.84806621 0.52634883 -0.061159246 0.097813793
1.4271272 2.1703653 1.623462 -0.22300786 0.83232856 0.50744122 0.11536599
1.4812037 2.0686996 1.7994851 -0.10795308 0.86770302 0.48521909 0.099860556
1.4715501 2.1035612 1.7082063 0.24944867 0.88393068 0.39552736 0.084206767
1.4857134 2.1060128 1.696017 0.29289007 0.88200301 0.36916953 0.06550847
1.4692565 2.1374793 1.6319673 0.28801781 0.90092474 0.32462338 0.06550204
1.4967769 2.1114564 1.6437325 0.43188635 0.839921 0.32864419 0.025022512
1.5139495 2.085216 1.70327 0.40107509 0.86209786 0.30971912 0.026849652
1.5104479 2.127728 1.5952893 0.49019209 0.83389717 0.25362796 0.0018365455
1.5151018 2.1259987 1.5964096 0.49154636 0.83295631 0.25409821 0.0021154089
1.564438 2.048285 1.749871 0.48900944 0.83485138 0.25277057 0.0023640424
1.5880581 2.018424 1.7812176 0.49521744 0.83356392 0.24480754 0.00249526
1.5880414 2.0367489 1.7261779 0.49515507 0.83238965 0.24889518 0.0021982251
1.6057371 2.0097361 1.7465825 0.49224117 0.8316254 0.25709486 0.0026124651
1.6018616 2.0369186 1.6860824 0.49687377 0.83127886 0.24918245 0.0025465302
1.5717987 2.0880301 1.5751731 0.50572097 0.82381469 0.25607735 0.0017106291
1.6517676 1.9899254 1.7550659 0.47875994 0.83899993 0.25858843 0.0012751071
1.6595453 1.9874616 1.7362833 0.48529062 0.83945447 0.244559 0.0017761142
1.6103894 2.0647871 1.5713992 0.50572568 0.82425076 0.25466102 0.0018037645
1.6273965 2.0433478 1.6116753 0.50879657 0.8219412 0.25600523 0.0018943287
1.6304573 2.0671787 1.5173833 0.48844987 0.83001709 0.26923668 0.0018178916
1.6650826 2.0179787 1.6195071 0.48191544 0.84144223 0.24440229 0.0017216785
1.6917964 2.0057318 1.6295792 0.47828788 0.83947027 0.25793478 0.0016948037
1.6746999 2.0232801 1.5720298 0.48201331 0.83594173 0.26242039 0.0021831386
1.69129 2.0042043 1.6006854 0.47639772 0.84263778 0.25101167 0.0020482382
1.7036697 2.0246317 1.5435066 0.4866966 0.83008844 0.27217555 0.0027346781
1.7431351 1.9467709 1.6888199 0.49412328 0.8264063 0.26999038 0.0029614894
1.7366792 1.9739587 1.6439521 0.47039822 0.83923519 0.27278149 0.0019268401
1.7611974 1.9657326 1.6307399 0.48764858 0.83529383 0.25393519 0.0024278194
1.7872783 1.9301653 1.6831808 0.48936146 0.82766056 0.27477887 0.002338056
1.7531425 1.9930236 1.5612741 0.4974255 0.82911235 0.25522673 0.0028841116
1.7509919 1.9956418 1.5279856 0.50259268 0.82143021 0.26954228 0.0030010391
1.790193 1.9581258 1.5680633 0.54192019 0.80973524 0.22505866 0.006762214
1.8164431 1.9181209 1.6708994 0.48943833 0.83061856 0.26556161 0.0019379511
1.8141354 1.9336723 1.6019876 0.54532117 0.81250703 0.20605129 0.0090921642
1.7846965 1.9980036 1.4476699 0.69528019 0.69934958 0.16581805 0.050828546
1.845174 1.9053092 1.6486604 0.58503163 0.78864926 0.18913041 0.029166197
1.8589689 1.9054776 1.6386206 0.65367836 0.74570554 0.12894879 0.065002702
1.8326207 1.9735975 1.4598305 0.7947827 0.60368687 0.062311277 0.077827513
1.8771449 1.8892014 1.6336546 0.79197228 0.6028108 0.096949019 0.095572889
1.8581775 1.9424968 1.4956422 0.85935175 0.50028878 -0.10595096 0.096629977
1.4302827 2.1492398 1.6804724 -0.21428101 0.848979 0.48303041 0.08922562
1.4738039 2.0940015 1.7502797 0.012721052 0.89109528 0.45363796 0.10368588
1.5242618 2.0412211 1.8481157 0.19341533 0.89352429 0.40522212 0.087967888
1.4894687 2.0872674 1.7280183 0.24439794 0.90627021 0.34488267 0.083733484
1.5284523 2.0460854 1.7905619 0.39931691 0.8815906 0.25168231 0.027517557
1.5244526 2.0585251 1.7733655 0.38078874 0.87494326 0.29912239 0.031550262
1.525184 2.0732291 1.7079976 0.44852403 0.84573627 0.28906131 0.011224073
1.5438899 2.0554864 1.7397507 0.4878096 0.8335107 0.25942588 0.0025184532
1.5395111 2.0611918 1.7093885 0.48310748 0.8308233 0.27629647 0.0045313253
1.5814065 2.0097804 1.8156831 0.49762863 0.82722628 0.26088756 0.0015897229
1.5493606 2.0950761 1.6088979 0.50614589 0.82437944 0.25340626 0.001502556
1.5762309 2.0351758 1.7291757 0.49617213 0.82964176 0.2559447 0.0021532413
1.5955178 2.0365734 1.6921453 0.4961091 0.83116037 0.25109401 0.0024781113
1.6141354 2.0142844 1.7383804 0.49481946 0.83165455 0.25200066 0.0019345416
1.611035 2.0254979 1.7171103 0.48842454 0.8332479 0.25911295 0.0024378889
1.6347371 2.0088878 1.7235844 0.49508348 0.82980484 0.25751954 0.0018281474
1.6236328 2.042706 1.6366134 0.49612811 0.8305198 0.25316742 0.0017118565
1.6719669 1.9751048 1.7530013 0.4928056 0.83472294 0.24572369 0.001406691
1.671331 1.9903972 1.7280483 0.49359953 0.83471471 0.24415351 0.0016023105
1.6948003 1.97136 1.7358849 0.4860411 0.83624583 0.25388384 0.0020661545
1.6616606 2.0454898 1.5713995 0.47772929 0.83641875 0.26866046 0.0023181832
1.7170147 1.957994 1.7261961 0.49040008 0.83238238 0.25816151 0.0016546841
1.6848592 2.01824 1.5901811 0.47295597 0.84164602 0.26066202 0.0021107392
1.6837417 2.0126169 1.5989504 0.47660178 0.841959 0.25289482 0.0018883588
1.6856905 2.0237632 1.5512779 0.47960272 0.83320999 0.27521339 0.0022882039
1.7168282 2.0161927 1.5605056 0.48931932 0.82943881 0.26943991 0.0031280392
1.7669624 1.9316529 1.7142789 0.48672402 0.83018988 0.27181721 0.0022085877
1.7748216 1.9367813 1.6965598 0.4929097 0.82672608 0.27122688 0.0019276238
1.7970799 1.9216557 1.7022347 0.48727199 0.82612979 0.28297639 0.0023468595
1.7705759 1.956444 1.6259727 0.5058248 0.82875687 0.23938107 0.0025078601
1.8030347 1.9148071 1.6967034 0.48653021 0.82848603 0.27730727 0.0030283204
1.7650737 1.9995432 1.5116343 0.514229 0.82051593 0.24964407 0.002488167
1.8362912 1.9107231 1.662838 0.56500012 0.79982114 0.20263518 0.020506861
1.8573478 1.8834422 1.7065768 0.60768825 0.7609241 0.22739726 0.022010999
1.8044277 1.9764887 1.4958495 0.64440727 0.7367543 0.20477413 0.037889052
1.8641938 1.8891952 1.6621799 0.68496317 0.70293242 0.19160272 0.056706801
1.824072 1.9641354 1.4855399 0.719751 0.67658097 0.15555277 0.068196654
1.8685557 1.9092051 1.6060427 0.74931288 0.64682734 0.14193192 0.093776681
1.8961052 1.8689312 1.6711198 0.83050025 0.55250847 0.070736974 0.083000429
1.8585652 1.9467001 1.4897435 0.84031868 0.53592455 -0.081543446 0.08208707
1.4635192 2.0877929 1.7752986 -0.11488588 0.8931604 0.43481699 0.10537429
1.4931322 2.0427523 1.8636017 -0.28503418 0.81651312 0.50205773 0.097512998
1.5307778 2.0278997 1.8744743 0.18467015 0.91693157 0.35374191 0.094901785
1.5090503 2.0546138 1.8149579 0.26881891 0.89174551 0.36404148 0.065231904
1.5336107 2.0357542 1.8123683 0.39258525 0.86955506 0.29958421 0.032435954
1.5214251 2.0682204 1.7346585 0.44327655 0.84825951 0.28976136 0.012609189
1.5319852 2.0534728 1.7654071 0.39855659 0.86394382 0.3078208 0.028255066
1.5544666 2.0498724 1.7605162 0.48392227 0.84092456 0.24220882 0.0027075987
1.532288 2.0836546 1.6953025 0.47305784 0.83725727 0.27425641 0.0051031867
1.5698115 2.0316896 1.7469649 0.49809092 0.82916439 0.25375524 0.00191863
1.6022798 1.98315 1.8678644 0.49923131 0.82425487 0.26715544 0.002137911
1.5642661 2.0630574 1.6821849 0.50063455 0.82375622 0.26606548 0.0026710038
1.5736591 2.0590408 1.674648 0.50627989 0.82221931 0.26006931 0.0020309039
1.5975703 2.0557737 1.6407655 0.50557852 0.82202226 0.26204902 0.0012107792
1.6159505 2.0334592 1.6740456 0.49293268 0.83261091 0.25254011 0.0022818116
1.6620318 1.9687393 1.8142054 0.48280269 0.83570421 0.26172528 0.0017762248
1.6248728 2.0454543 1.6286982 0.49684426 0.82944822 0.25526714 0.0015316147
1.6341428 2.0263994 1.6570363 0.50123203 0.82786703 0.25179887 0.0015502854
1.6679984 1.9973471 1.7034166 0.48981097 0.83535373 0.24953842 0.0020394849
1.6787034 1.9688106 1.7447932 0.49636564 0.8335945 0.24236634 0.0016541629
1.6958741 1.9748991 1.7065721 0.48861876 0.83701503 0.24628744 0.0016377823
1.7355143 1.9291939 1.791127 0.50511152 0.82516849 0.25290164 0.0016530368
1.6886746 2.0081668 1.6062567 0.47597358 0.84355563 0.24872275 0.0019464036
1.7009314 1.9992703 1.6243424 0.47819349 0.8383857 0.2616111 0.0022681917
1.7445463 1.9480758 1.6961672 0.49865299 0.82357037 0.27032775 0.0025459686
1.7415971 1.9514018 1.7001739 0.49651426 0.82402384 0.27287039 0.0025579999
1.7430447 1.9629416 1.6616926 0.48175091 0.83583796 0.26323184 0.0026820085
1.777655 1.9355153 1.6970403 0.48973909 0.82897836 0.27009368 0.0020936355
1.7653571 1.9522744 1.6537647 0.49090964 0.82890379 0.26819044 0.0025006244
1.8213364 1.8807609 1.7785678 0.50878096 0.82464087 0.24720336 0.0021694398
1.7642802 1.9753171 1.5722511 0.4959825 0.83374101 0.24264628 0.0025455491
1.7861024 1.9517684 1.6067531 0.50078756 0.83172649 0.23967232 0.0023439198
1.8233618 1.9216371 1.6569948 0.50046051 0.82973146 0.24715391 0.0024611473
1.8487118 1.8609686 1.7616816 0.55633664 0.80553806 0.20395607 0.013874269
1.8351077 1.9086891 1.6530476 0.56016481 0.80055827 0.21288916 0.02003072
1.85243 1.8959948 1.6750695 0.61416483 0.75507694 0.22947843 0.033525892
1.839444 1.9191985 1.5880232 0.71891981 0.68984467 0.085255876 0.080040149
1.8507537 1.9321866 1.5494509 0.76796204 0.63893741 0.044646244 0.090610914
1.8707393 1.9163771 1.5608442 -0.92867529 -0.36535648 0.063850105 0.10652741
1.876177 1.9062452 1.5773993 -0.98419613 -0.17069751 0.047120955 0.094220206
1.4759964 2.0771661 1.7933347 0.09756732 0.93265271 0.34733209 0.076692156
1.4847602 2.0877552 1.7620676 0.15434073 0.9118005 0.38052446 0.086138576
1.5065938 2.0605812 1.813905 0.26796553 0.8903622 0.36803466 0.06545765
1.525221 2.0175722 1.8924501 0.0023658369 0.89554608 0.44496256 0.1019899
1.5096327 2.0642669 1.7825687 0.37125728 0.87976998 0.29693902 0.032693386
1.5358626 2.0316706 1.8119695 0.36050677 0.87600249 0.32039729 0.045876559
1.5826141 1.9760088 1.942836 0.38895518 0.85839581 0.33447054 0.028089179
1.5635575 2.0235813 1.8162484 0.48452407 0.82880443 0.27985641 0.0070926552
1.5633453 2.0296903 1.8061912 0.49577725 0.82733661 0.26404375 0.0030904363
1.6055969 1.9690225 1.9052818 0.49463594 0.82854563 0.26238793 0.0020087177
1.6277553 1.9444468 1.9172878 0.49614796 0.82817757 0.26068985 0.0024071645
1.5918239 2.0146065 1.7683022 0.48735109 0.83521241 0.25477278 0.0019441569
1.6080736 2.0116036 1.7624598 0.48839024 0.83464807 0.25463232 0.0021769674
1.6226007 2.0067291 1.7454845 0.49389014 0.83390945 0.24630781 0.002394344
1.6185097 2.0195353 1.7065485 0.49151355 0.831343 0.25938985 0.0021917485
1.6623079 1.947407 1.8443413 0.48509112 0.8314513 0.27087888 0.0024747739
1.6531273 1.9819819 1.7832558 0.48207203 0.83686286 0.25935891 0.0018155267
1.6881658 1.9600917 1.7871695 0.49226615 0.83015352 0.26176146 0.0023691177
1.6865965 1.9618281 1.773375 0.4966937 0.83161747 0.24841073 0.0025271066
1.7059637 1.9323947 1.8160818 0.50432402 0.8221246 0.26413709 0.0023573039
1.7428066 1.9040614 1.8677783 0.49847817 0.82562637 0.26431152 0.0034427159
1.7528602 1.8885512 1.8603129 0.48120442 0.83465391 0.26794621 0.0034055286
1.7382954 1.9016161 1.8422009 0.49576917 0.82281446 0.27782956 0.00277467
1.7621275 1.8940448 1.8468776 0.47983369 0.83270609 0.27633333 0.0027801003
1.7400631 1.9375321 1.7265015 0.50161874 0.82197523 0.26969486 0.0019793601
1.7431618 1.9694364 1.6564268 0.47836143 0.83674949 0.26649696 0.0027412891
1.7654377 1.9456804 1.6743877 0.48892248 0.83284354 0.25947338 0.0026315923
1.753939 1.9532082 1.6722436 0.4895508 0.83000642 0.26726276 0.0029386971
1.7955915 1.9271864 1.6927438 0.49070507 0.82788205 0.27169803 0.0026411051
1.7888039 1.9454701 1.6476718 0.49232396 0.83009613 0.26183474 0.0023145105
1.8427678 1.8700018 1.7759225 0.51186424 0.82154626 0.25111073 0.0025548437
1.8484973 1.8457756 1.8075533 0.52162093 0.81525439 0.25153911 0.0040860651
1.8221303 1.9048485 1.6842453 0.48520952 0.83309186 0.2655744 0.0027006001
1.8611542 1.8549285 1.769418 0.59541506 0.7911554 0.13983552 0.033481825
1.8380076 1.9140728 1.6405604 0.58024949 0.78866673 0.20326161 0.029501425
1.8868073 1.8417023 1.772444 0.67804384 0.7285527 0.097300954 0.054943401
1.9078907 1.8211652 1.7831819 0.83085692 0.55602884 0.022553246 0.109249
1.8954672 1.8358903 1.7548012 0.7611019 0.63887405 0.11208886 0.091030687
1.8593441 1.9240921 1.5655658 0.80538207 0.59127402 0.04188953 0.091631345
1.8778585 1.9157075 1.5611123 -0.96770978 -0.23562682 0.089542069 0.10050488
1.490909 2.0411294 1.8757334 -0.33237737 0.82410216 0.45867288 0.10128057
1.4773244 2.0786657 1.8080246 -0.047375545 0.8847506 0.46365064 0.085258439
1.5167097 2.0131049 1.9192255 -0.36306959 0.79487401 0.4861643 0.10105554
1.5262181 2.0312397 1.8674228 0.21567148 0.88088489 0.42134032 0.092994243
1.5656689 1.9717199 1.9568703 0.33939415 0.87306195 0.35010621 0.036939785
1.5704759 1.9915512 1.9183781 0.38612399 0.86247367 0.32718104 0.037578031
1.569472 2.0027637 1.8819783 0.39004746 0.86687899 0.31045747 0.035664
1.5686961 1.9952904 1.8761964 0.39260325 0.87071419 0.29617491 0.032033049
1.5924641 1.9727571 1.9021187 0.47893 0.83741522 0.26336628 0.0060974597
1.591276 2.012321 1.8024232 0.50188911 0.82689226 0.25368601 0.0017542959
1.6259917 1.9394155 1.9382868 0.50401068 0.82884079 0.24289121 0.0024920322
1.6380872 1.9540969 1.9099352 0.49766168 0.82578015 0.26536775 0.0027316438
1.627124 1.9866397 1.7974212 0.48846796 0.83135003 0.26505917 0.0020604494
1.6314076 1.9806998 1.7924294 0.48671606 0.83254993 0.26451468 0.0015991398
1.6876835 1.9127052 1.9298518 0.49766216 0.82992744 0.25209668 0.0030776968
1.6871537 1.9201229 1.896137 0.50086606 0.82225096 0.27025285 0.0031147243
1.6468428 1.9935884 1.7202117 0.48618758 0.83790755 0.2480576 0.0019970851
1.6832992 1.9578278 1.8023591 0.49326575 0.83045429 0.25891033 0.0022241005
1.6891807 1.9472524 1.8056326 0.48768759 0.83448821 0.25649619 0.002452729
1.6785525 1.9851557 1.7110503 0.48910332 0.83639854 0.24741732 0.0021993583
1.747687 1.8862872 1.9066162 0.48905084 0.83137244 0.26391128 0.0035754673
1.7572705 1.8764772 1.8886316 0.48821914 0.8311044 0.26628485 0.0037702771
1.7043122 1.9711735 1.7031183 0.48377654 0.83822423 0.25167483 0.0018973846
1.7751042 1.8704908 1.8995605 0.48556918 0.8312614 0.270605 0.0038035384
1.7505113 1.931777 1.7240932 0.49850333 0.82510716 0.26588047 0.0020351321
1.8103155 1.8597403 1.8785429 0.4837321 0.83145905 0.27327502 0.0030602496
1.7523383 1.941071 1.7107832 0.49687055 0.82331491 0.27435789 0.0021529598
1.7735838 1.9439981 1.6623182 0.48888817 0.83108455 0.26511669 0.0020360847
1.8038288 1.9063951 1.7378995 0.48904952 0.82735771 0.27624229 0.0020099638
1.803774 1.8996651 1.7205973 0.48681796 0.82810754 0.27793175 0.0021676258
1.8460344 1.8517232 1.8321364 0.50050884 0.82996923 0.24625601 0.0020049403
1.8078088 1.9113255 1.6757933 0.49106899 0.83026809 0.26364005 0.0024977694
1.879995 1.8249775 1.8371613 0.56459761 0.79196441 0.23242614 0.012418211
1.8398784 1.9021535 1.6790582 0.55959797 0.79887056 0.22058088 0.01780864
1.8735722 1.8441081 1.7923372 0.58985543 0.78085607 0.20575306 0.031271871
1.9067088 1.8234888 1.7930834 0.79742604 0.60281503 0.026940819 0.093977235
1.9025081 1.827112 1.765265 0.81090724 0.58258957 -0.054943193 0.10433942
1.9382256 1.8013837 1.8143113 0.84948891 0.52681303 -0.02892313 0.096363701
1.9057306 1.832639 1.7465057 0.85700196 0.51027775 0.071862452 0.10900776
1.9152023 1.8686783 1.6457789 -0.92687511 -0.37166908 0.05257915 0.088335402
1.4922627 2.0376396 1.881217 -0.36510798 0.80071867 0.47491655 0.096020654
1.5107318 2.0269365 1.9062636 -0.29952672 0.82724291 0.47534499 0.099371426
1.5313538 2.0066652 1.9459467 0.036518306 0.88582087 0.46258816 0.087648541
1.5536097 1.9769676 1.9908473 0.16024846 0.87663084 0.45369464 0.077593699
1.5380167 2.0060716 1.8909414 0.22055073 0.90625328 0.36064163 0.087549277
1.6027769 1.9334829 2.0294287 0.37098259 0.88223243 0.28989273 0.024750035
1.5592328 2.0099597 1.8647881 0.38556898 0.87150812 0.30300185 0.038424678
1.6068739 1.9381506 1.9975905 0.41009033 0.86014992 0.3032622 0.015328825
1.6032008 1.9515121 1.9379737 0.47209358 0.838395 0.27243614 0.0072201807
1.5991811 1.9875448 1.8334248 0.49312961 0.82995647 0.26075923 0.0023980699
1.6056265 1.9864527 1.8347678 0.49005643 0.83248913 0.25846979 0.0022066615
1.6583892 1.909992 1.984782 0.50309658 0.82727903 0.25000665 0.002824151
1.6608847 1.9138849 1.9529493 0.49567261 0.83306777 0.24557431 0.0032664724
1.6754485 1.9255135 1.9293339 0.49118301 0.83350021 0.25301519 0.0030236922
1.6876892 1.9039662 1.93501 0.50011826 0.82545155 0.26174703 0.0034190787
1.6976725 1.9015691 1.9280486 0.50704479 0.82270807 0.25701573 0.0031920199
1.6801418 1.9491642 1.8334438 0.49350673 0.82780963 0.26680019 0.0022821783
1.7069601 1.9169526 1.8851433 0.5029906 0.8195582 0.27445382 0.0033595099
1.6833645 1.9735293 1.7541389 0.49395099 0.83378577 0.24660441 0.0017717548
1.7472962 1.8654654 1.9453642 0.48891163 0.83009452 0.2681576 0.0028435076
1.7176715 1.9140429 1.8431935 0.51092803 0.81382233 0.27684966 0.0026568351
1.7421612 1.8841344 1.8858249 0.48926875 0.83083344 0.26520172 0.0036843792
1.7422391 1.935009 1.7629871 0.49792835 0.82713956 0.2605907 0.0022431177
1.7372338 1.9432518 1.7346539 0.50478309 0.82125849 0.2659483 0.0016146832
1.7689444 1.8925998 1.8523293 0.47790712 0.83423936 0.27504456 0.0029484578
1.7664915 1.9077603 1.7806687 0.50654405 0.82034624 0.26541507 0.0020018497
1.8018502 1.8726871 1.8375065 0.49279302 0.83178127 0.25552893 0.0034093468
1.8094996 1.8509592 1.8796692 0.48229057 0.83317751 0.27057543 0.0027670215
1.8102826 1.8809882 1.7932208 0.50404602 0.82700121 0.24901132 0.0021379967
1.8428909 1.8234684 1.8984885 0.49492058 0.82754904 0.26498345 0.0027398008
1.8231138 1.8853159 1.7726823 0.50896674 0.82189918 0.25580174 0.0018554041
1.8520569 1.8512596 1.8209066 0.5037564 0.82866514 0.24401572 0.0020367105
1.8702344 1.8187416 1.8605208 0.53066152 0.81008434 0.24932258 0.0047633075
1.8922619 1.8178912 1.8353307 0.65065509 0.72951162 0.21085705 0.031803869
1.8681234 1.8674089 1.7396848 0.59187526 0.7797218 0.20424886 0.024005011
1.8834552 1.8632126 1.7163627 0.66893494 0.72519636 0.16314474 0.047830157
1.8913807 1.8360434 1.7610197 0.75361675 0.65070742 0.092959717 0.089021869
1.8863376 1.882093 1.6525168 0.79882133 0.59343451 0.098589815 0.082995288
1.9084331 1.8622497 1.6675961 -0.91952312 -0.39287356 0.011297893 0.080898426
1.9221283 1.853483 1.6740124 -0.93526262 -0.34817114 0.063723482 0.076204516
1.5498658 1.941797 2.1046822 -0.19270773 0.88908893 0.4151921 0.10187916
1.5252887 1.9933074 1.9619133 0.0014199215 0.88181472 0.4715938 0.083556376
1.5319017 2.0078988 1.8957064 0.12847628 0.90783304 0.39916527 0.10009231
1.5541998 1.9803556 1.9498346 0.27067021 0.87783384 0.3951523 0.064541236
1.5739082 1.9598188 2.0110846 0.1850173 0.89387441 0.40835899 0.069100596
1.6091548 1.91295 2.0727358 0.32530904 0.89426565 0.3073484 0.041616544
1.6090485 1.9315741 2.0104697 0.41408074 0.86006981 0.29802203 0.016415557
1.6055859 1.9621906 1.9321432 0.499001 0.83054584 0.24736942 0.0026249301
1.6234475 1.9189246 2.0110371 0.47084647 0.84200883 0.26329589 0.0038154097
1.6428763 1.9027627 2.033761 0.49726993 0.82575738 0.2661719 0.0026833429
1.6151446 1.9662385 1.8707108 0.49306443 0.8253445 0.27512535 0.0018758635
1.6416382 1.9321131 1.9452896 0.49747652 0.83099556 0.24892457 0.0031020064
1.6693469 1.9037999 2.0094318 0.50848794 0.8229053 0.25350934 0.0025295962
1.6483759 1.9710339 1.827264 0.48365492 0.83415693 0.2650663 0.0016400251
1.6542979 1.9560211 1.8529494 0.48574629 0.82919765 0.27655336 0.0020045179
1.7036735 1.8960354 1.9648514 0.51221043 0.82133704 0.25108927 0.0023573644
1.6750485 1.9315248 1.8769586 0.49384779 0.82493353 0.2749528 0.0028187332
1.7166187 1.892073 1.9315987 0.50873882 0.81819135 0.26785767 0.0035231214
1.7157665 1.9121025 1.8935378 0.50431621 0.82147145 0.26617616 0.003222655
1.7065812 1.9424039 1.7957404 0.50173473 0.82741076 0.25229695 0.0018427876
1.7251946 1.9314783 1.8097026 0.51028305 0.81895864 0.26252231 0.0023257532
1.731629 1.9155209 1.847851 0.51022393 0.81426996 0.27683222 0.0022352189
1.7661711 1.8606048 1.9336712 0.48649803 0.82988113 0.27316117 0.0032164922
1.7537717 1.9124639 1.7756294 0.4939498 0.82974893 0.25986591 0.0025298283
1.7712985 1.8855116 1.846493 0.4816311 0.83425707 0.26841506 0.0033464464
1.7873765 1.8830169 1.820524 0.49432227 0.83058721 0.25645736 0.0034830517
1.8171805 1.8595829 1.867527 0.48511699 0.83302248 0.26596081 0.0026318273
1.7823471 1.9075114 1.7699234 0.49876258 0.82526726 0.2648958 0.0023816661
1.8430156 1.8064024 1.9488504 0.50521779 0.8222118 0.26215002 0.0027407554
1.8177561 1.8849082 1.7569807 0.49724168 0.82438582 0.27044186 0.002008881
1.880375 1.8023672 1.925281 0.51613778 0.8168059 0.25774002 0.0034473822
1.8444623 1.8599999 1.7781887 0.51117563 0.82788879 0.23086701 0.0036894721
1.8858064 1.793618 1.9205763 0.52443868 0.81229013 0.25524244 0.0046263197
1.8468527 1.8654171 1.750294 0.56551117 0.79698026 0.2121785 0.01383075
1.9106644 1.7828515 1.9004185 0.59127969 0.78324085 0.19215092 0.02652899
1.8822724 1.8477285 1.768882 0.65694052 0.73845178 0.15204674 0.051639933
1.9050752 1.8177454 1.8038125 0.81377983 0.57630938 0.075032577 0.0933972
1.9458472 1.7632048 1.8900158 0.72484851 0.68074173 0.10576075 0.087420627
1.9295186 1.8152125 1.7705705 -0.88331002 -0.43877313 0.16505022 0.11122167
1.9628073 1.7619388 1.8650103 -0.88177031 -0.46316886 0.089194722 0.095858678
1.5205616 1.9967663 1.9592164 -0.022597374 0.86946601 0.49347562 0.084395587
1.5651087 1.9343543 2.0700636 -0.0099027511 0.93902862 0.34369656 0.098464325
1.566646 1.9415984 2.0462854 0.10060969 0.93707514 0.33431703 0.085288696
1.6006218 1.9039469 2.1348541 0.24305446 0.89804673 0.36665601 0.069277324
1.5806428 1.9571656 2.0017369 0.29524639 0.88461787 0.36094415 0.043339424
1.6025807 1.9298525 2.0154779 0.41054043 0.86249775 0.29589561 0.016738376
1.6042892 1.9494994 1.9753139 0.42530492 0.85875744 0.28574702 0.015346242
1.6373621 1.9030536 2.0700779 0.47737199 0.83656007 0.26885563 0.0024129488
1.6050688 1.9457276 1.9661267 0.44876477 0.85088801 0.2731294 0.0086539658
1.6311496 1.9197538 1.9970889 0.49667606 0.82990718 0.25410035 0.0033751659
1.6311272 1.9487259 1.9151857 0.49697006 0.82730734 0.26188427 0.0025741702
1.6799947 1.8686719 2.064775 0.51017934 0.81988972 0.25980338 0.0025770888
1.6511582 1.9206297 1.9491086 0.49364382 0.83398306 0.24655215 0.003035164
1.6946453 1.857614 2.076026 0.51487434 0.81753361 0.25795949 0.0023228736
1.7174619 1.8468078 2.0579593 0.50928575 0.82130998 0.2570563 0.002732913
1.7242595 1.854461 2.0424373 0.50518006 0.82180762 0.26348677 0.0026109617
1.7182173 1.8715627 1.9877875 0.50365263 0.82363939 0.26067641 0.0027383857
1.7223819 1.8892944 1.9544039 0.50919354 0.8224358 0.25361633 0.0030208789
1.7203969 1.8878109 1.9217145 0.50337017 0.82291317 0.26350018 0.0035367897
1.7597495 1.8445559 2.0078747 0.48964277 0.83186644 0.26124346 0.0026281737
1.7271134 1.9168345 1.854156 0.51266348 0.81340492 0.27486089 0.002596529
1.7624382 1.8640321 1.9141703 0.48916277 0.82829052 0.27322984 0.0036588055
1.7444776 1.9114647 1.8200452 0.49868381 0.82487684 0.26625687 0.0024345582
1.7933139 1.8516152 1.9386497 0.47207382 0.83755702 0.27503559 0.0029030081
1.7820319 1.8591148 1.8922997 0.48843095 0.82673275 0.279192 0.0035753401
1.7992221 1.8619368 1.8631425 0.48988354 0.82938516 0.26857853 0.003284764
1.8257869 1.8293899 1.9214852 0.49035418 0.82851934 0.27038571 0.0024014434
1.7974795 1.8738312 1.8278308 0.49391881 0.83007979 0.2588664 0.00347763
1.8306924 1.8484588 1.8756275 0.48530686 0.83409333 0.26223207 0.0025125099
1.8806325 1.7733943 1.9876966 0.51641357 0.81454694 0.26425433 0.0041486695
1.8814839 1.7920718 1.9296644 0.52020079 0.81296605 0.26168188 0.0036176364
1.8947734 1.7935632 1.9212396 0.53968203 0.80691439 0.24006782 0.0064769452
1.9120368 1.7677996 1.9739649 0.51967251 0.81376314 0.2602497 0.0038268182
1.9110237 1.7809603 1.9104748 0.5815925 0.78637052 0.20825849 0.020265356
1.9317716 1.7555261 1.939338 0.66175091 0.71165723 0.23585968 0.050713051
1.8852257 1.8462474 1.7583251 0.68728 0.71298921 0.13889824 0.071256988
1.8967546 1.8351572 1.7576613 0.76084334 0.6391409 0.11232246 0.091164276
1.9101237 1.8261406 1.7815161 0.81472462 0.57982749 0.004893187 0.10339177
1.9387938 1.8044208 1.7953639 -0.92380202 -0.30267447 0.23447391 0.10524125
1.9569076 1.7767763 1.8208408 -0.96584535 -0.076876149 0.24745239 0.074110627
1.5404185 1.9497529 2.0810053 -0.40555432 0.78704095 0.46485728 0.091627747
1.5644544 1.9254816 2.1113479 -0.22616746 0.86874628 0.4405998 0.10319016
1.5470604 1.9802768 1.9749579 0.09631978 0.84775501 0.52156872 0.075040765
1.603084 1.8907062 2.1707563 0.26814461 0.86498642 0.4241426 0.07256902
1.6264228 1.8688287 2.169225 0.31622517 0.88224578 0.34877506 0.056430388
1.6241297 1.8723898 2.1590917 0.3621935 0.8680135 0.33965912 0.043861531
1.6055819 1.9150476 2.0570352 0.32063374 0.89427304 0.31220144 0.041619707
1.6253918 1.8989781 2.0749249 0.44601208 0.84579182 0.29276168 0.005385709
1.6569477 1.863934 2.1528356 0.49631026 0.82599473 0.26722407 0.0020754968
1.67424 1.8667154 2.0932672 0.50218701 0.82109952 0.27130041 0.0024688016
1.6652192 1.8831314 2.0684311 0.49485433 0.82811612 0.26333046 0.0025508697
1.658985 1.9032968 2.0184667 0.50242615 0.82560545 0.25679478 0.0025064156
1.7132789 1.8364317 2.1155469 0.50464505 0.82089096 0.26734161 0.0020608681
1.7069288 1.8602176 2.0463254 0.51636893 0.81126511 0.27424821 0.0028252935
1.6848506 1.8874578 1.9961288 0.50850838 0.82446533 0.2483467 0.0025722543
1.7308697 1.8379898 2.1012795 0.5022915 0.8247692 0.25972897 0.0022982049
1.7069029 1.9002395 1.909826 0.50127155 0.8223328 0.26924995 0.0033004275
1.709179 1.899735 1.9096265 0.50136602 0.82224828 0.26933211 0.0032399774
1.7515703 1.8407239 2.0161843 0.49529183 0.82863647 0.26085931 0.002764174
1.7502943 1.8410249 2.0100381 0.49460754 0.82903326 0.26089692 0.0030963498
1.7689408 1.8378906 2.0261991 0.49078113 0.82872289 0.26898393 0.0025144622
1.7465953 1.8880943 1.8758831 0.48886147 0.8314867 0.26390195 0.0035966737
1.7718583 1.849638 1.9579494 0.48472941 0.83799952 0.25058752 0.0030213734
1.7709261 1.8675783 1.9038582 0.48934981 0.82989216 0.26798472 0.0039577358
1.8190697 1.8070235 2.0280039 0.48972628 0.82967198 0.26797855 0.0033110813
1.8150734 1.8523042 1.8920043 0.47949666 0.8369506 0.26381156 0.0025702494
1.8451937 1.8080907 1.9665661 0.50486737 0.82194948 0.26364371 0.0033892023
1.8436228 1.8089025 1.9729211 0.50557566 0.82235181 0.2610186 0.0035485311
1.8772939 1.7541096 2.0459983 0.51054764 0.82009268 0.25843573 0.0035928327
1.8462678 1.8454918 1.8388958 0.50316501 0.82876766 0.24488612 0.0018672985
1.9040927 1.7445505 2.03863 0.502262 0.82187122 0.26881346 0.0030765256
1.8850859 1.7775207 1.9658384 0.51514035 0.81429595 0.26749307 0.0039112181
1.8973674 1.7817013 1.958909 0.51834351 0.8152411 0.25826702 0.0038779823
1.9006444 1.7774006 1.9267869 0.53139222 0.81434876 0.23336335 0.0075530405
1.9301506 1.7600541 1.9315646 0.66045493 0.71219009 0.23787521 0.051470038
1.9429358 1.7325063 2.005805 0.54238057 0.80840021 0.228719 0.011991068
1.9279605 1.7618041 1.9197254 0.66395015 0.72225618 0.19369082 0.055696938
1.9402312 1.7826824 1.8765779 0.72867644 0.68119067 0.070781164 0.075667948
1.9754971 1.7092156 2.0001078 0.82415575 0.56573927 -0.0265771 0.11251415
2.0036063 1.7045825 1.9837978 -0.96071488 -0.082277246 0.26506129 0.064705655
1.5810171 1.8811628 2.2184083 -0.38602361 0.83096445 0.40060434 0.10008003
1.5892326 1.9009051 2.1450026 0.093018092 0.9076218 0.40935352 0.085272647
1.5969955 1.8868423 2.1596704 0.15825281 0.88855785 0.43060535 0.072790436
1.5953211 1.8920318 2.1458843 0.15343173 0.89132726 0.426608 0.072619833
1.5921139 1.9251406 2.0775559 0.24129021 0.9288308 0.28116241 0.045535438
1.6074809 1.9000906 2.1006761 0.36159617 0.89074349 0.27536204 0.034989625
1.6403731 1.8908538 2.0965941 0.47760701 0.83387798 0.2766569 0.0039596334
1.6286868 1.9269688 2.010366 0.48129785 0.83677292 0.26108149 0.0033833988
1.635002 1.9097004 2.048717 0.47714528 0.83446378 0.27568582 0.003026268
1.6684517 1.8499389 2.1428995 0.49771515 0.82336396 0.27267459 0.0023724902
1.6785194 1.8572389 2.1148868 0.50252855 0.82156301 0.26925701 0.0027367517
1.6594907 1.9203894 1.9742091 0.49998578 0.82985973 0.24768323 0.0030454516
1.7163762 1.8108522 2.1756713 0.49400151 0.83156633 0.25388974 0.0020688835
1.6720091 1.9107645 1.9563358 0.50086415 0.82840616 0.25075552 0.0032350065
1.7143959 1.8488095 2.0625203 0.50527239 0.82263464 0.26071462 0.0028039722
1.7518986 1.798558 2.1691952 0.50387967 0.8279745 0.24609658 0.0023491632
1.7639426 1.7977347 2.1484706 0.49188867 0.83233476 0.25546888 0.0023192037
1.7430254 1.8438029 2.0509877 0.49536335 0.83071095 0.25403595 0.0025268493
1.7490588 1.8416431 2.0120196 0.49805632 0.82757169 0.25896904 0.0031083517
1.7763377 1.8005809 2.0949538 0.4804962 0.83468795 0.26910886 0.0027210079
1.7694594 1.8446147 1.9657886 0.48739907 0.83652115 0.25034878 0.0028431732
1.8147558 1.7737439 2.098979 0.49594811 0.82828653 0.2607238 0.002450858
1.8025144 1.8124108 2.0115948 0.4846729 0.83212507 0.26955563 0.0027255123
1.8274785 1.7821844 2.0506794 0.50303096 0.8175478 0.28031301 0.0033324338
1.7929314 1.8479414 1.9175291 0.47408837 0.8391397 0.26661712 0.0027189772
1.8110431 1.8466763 1.9144979 0.47533718 0.83607221 0.27393055 0.0024747178
1.8306726 1.8243959 1.9342463 0.49483073 0.82867521 0.26161045 0.0027884732
1.8746604 1.7469777 2.0975828 0.49958903 0.82830805 0.25360695 0.0024555752
1.8846546 1.7405055 2.0856736 0.50253308 0.824889 0.25887978 0.0026532547
1.8846601 1.7516971 2.0423474 0.50770175 0.82081556 0.26172638 0.0030511722
1.8970159 1.7682586 2.0011954 0.51542735 0.81483924 0.26527643 0.0040081418
1.9184705 1.7375381 2.0480368 0.49528557 0.82862383 0.26091152 0.0022513585
1.8820156 1.8077657 1.8988485 0.53175181 0.80856699 0.25191167 0.003480735
1.9106327 1.7708598 1.9532056 0.52452445 0.81081325 0.25972271 0.0040407004
1.9383243 1.7421144 1.9679003 0.65046382 0.73980743 0.17199324 0.052535329
1.9211892 1.7673895 1.9212089 0.65588772 0.72504556 0.21004793 0.052107759
1.9462141 1.7495072 1.9344304 0.70590889 0.66637772 0.24006945 0.065534666
1.96657 1.7231207 1.9832857 0.68528223 0.72095239 0.10303368 0.068364866
1.9827002 1.7200894 1.9535799 -0.8961249 -0.43174756 0.10273343 0.095912531
1.9881417 1.7274575 1.9418347 -0.89156556 -0.44389042 0.089844689 0.099559583
1.5903891 1.8883353 2.2014492 -0.28699991 0.8521474 0.43757957 0.10289728
1.5605634 1.9290378 2.1087489 -0.19422606 0.87664211 0.44019866 0.10173927
1.5878853 1.9004424 2.1598322 0.12568998 0.89601272 0.42586762 0.076325864
1.5891231 1.9035914 2.1176298 0.035666004 0.8992722 0.43593279 0.08964026
1.6007041 1.8987863 2.1157753 0.34055969 0.88997108 0.30326658 0.04427857
1.6223472 1.8861666 2.1248207 0.44736081 0.84125245 0.30358306 0.017450212
1.6615075 1.8474616 2.1797574 0.47727549 0.8338601 0.27728212 0.0071825371
1.6823081 1.8175228 2.2203681 0.50030571 0.82771987 0.25411415 0.0016051891
1.6445626 1.9097838 2.028796 0.49747878 0.82701629 0.2618373 0.002729466
1.6786965 1.8661742 2.1037772 0.50821882 0.81938314 0.26518852 0.0025653483
1.6921586 1.8421931 2.1218932 0.50683987 0.81938821 0.26779899 0.002044599
1.6903974 1.8635023 2.0849853 0.51801074 0.81585544 0.25699177 0.00226018
1.6903764 1.8742356 2.0531487 0.50707686 0.81771404 0.27242762 0.002707399
1.7266711 1.8283734 2.1101098 0.49971664 0.82677037 0.25832939 0.0022620049
1.7520803 1.7846336 2.1900823 0.5027864 0.82670784 0.25250733 0.0017355463
1.7025303 1.8792559 2.0085802 0.51523226 0.82116753 0.24539672 0.0026637404
1.7693168 1.8021227 2.1283004 0.4905929 0.83004498 0.26522434 0.0022011874
1.7334307 1.8523073 2.0043278 0.50010556 0.82731271 0.25582805 0.0027797043
1.7531012 1.8189554 2.0727432 0.49489641 0.8284204 0.26229209 0.0033342985
1.7692162 1.8392503 2.005779 0.48718071 0.83375299 0.2598289 0.0025538174
1.7862867 1.8190334 2.0520847 0.47827041 0.83879131 0.2601665 0.0025371872
1.8094963 1.8030517 2.0597651 0.4944444 0.82700688 0.26755247 0.0029607539
1.8260211 1.7868359 2.0714045 0.50458646 0.8210758 0.26688391 0.0032285557
1.8085696 1.820312 2.0067754 0.4838841 0.83298087 0.26832631 0.002843596
1.8480586 1.7635107 2.0791924 0.50796026 0.81933653 0.26582715 0.0032179677
1.8605648 1.7475405 2.1374884 0.49456584 0.83051413 0.25622419 0.0022650957
1.8421894 1.7932693 2.0082779 0.51283139 0.81489807 0.27008364 0.0034375302
1.8527735 1.7765906 2.0254588 0.51125652 0.81539458 0.2715669 0.0037902053
1.8600253 1.7926815 1.9878919 0.5173189 0.81296682 0.2673313 0.0034239688
1.8846837 1.7765399 1.9912934 0.51656169 0.81434762 0.26457876 0.0038542014
1.8768502 1.8084879 1.9130166 0.51777875 0.81468844 0.26112825 0.0030776854
1.9015876 1.7538916 2.0129981 0.50609291 0.82224804 0.26034212 0.0036118994
1.9020661 1.7668645 1.95312 0.52356249 0.81134659 0.25999808 0.0044078808
1.9139777 1.7725613 1.9338787 0.5954234 0.7605446 0.25892654 0.019685782
1.960023 1.6905365 2.1036274 0.62909245 0.73949403 0.23956475 0.043896809
1.9681512 1.6997707 2.0572124 0.62918329 0.74331743 0.22717305 0.060468405
1.9489015 1.7605906 1.9233439 0.71906197 0.68904579 0.090364285 0.082710847
1.9849166 1.7024729 2.0206678 0.81501752 0.5786314 0.030530293 0.11542124
1.9886009 1.7063371 2.0132136 0.82841647 0.5600903 0.0049814829 0.10293186
2.0000925 1.6832049 2.0332739 -0.96571749 -0.23980388 0.099417411 0.12001871
1.5850574 1.8722599 2.2262237 -0.49710938 0.77118301 0.39769223 0.091855317
1.6077126 1.8591329 2.2297013 -0.0311535 0.92828745 0.37055621 0.099504843
1.6122633 1.8713512 2.2034948 0.11098423 0.92284477 0.3688361 0.1073982
1.6021627 1.9076023 2.1078942 0.32527795 0.90608144 0.27057472 0.041158851
1.6623734 1.8167017 2.2837956 0.39394695 0.86803508 0.30219349 0.028482173
1.6372896 1.8657532 2.1804953 0.3600637 0.87102813 0.33416179 0.042715367
1.6508406 1.8370512 2.2131672 0.40095702 0.86696362 0.29598588 0.03204751
1.6489908 1.8616356 2.164371 0.4710682 0.8336246 0.28838313 0.0074539282
1.6965879 1.8147767 2.2200468 0.49321166 0.82962376 0.2616612 0.0023376408
1.6826802 1.8575585 2.1216836 0.50227207 0.82098013 0.27150363 0.0026685507
1.6876704 1.835228 2.1725206 0.49422044 0.82688189 0.26835138 0.0022794215
1.7259144 1.7898632 2.2575669 0.48565301 0.83806014 0.24858874 0.0025483959
1.7433206 1.7828631 2.2386053 0.50306487 0.82758069 0.24907015 0.0023249015
1.7468175 1.7819386 2.241883 0.50284618 0.82737482 0.25019318 0.002275476
1.7612284 1.7587366 2.2541027 0.49432084 0.82980281 0.25898689 0.0020158854
1.7361363 1.8174026 2.1355424 0.50523686 0.82380319 0.25706828 0.002262187
1.770095 1.787483 2.1527357 0.48979175 0.83482212 0.2513487 0.0024726503
1.7798947 1.7812045 2.1842251 0.51112312 0.82319617 0.24718639 0.0022083193
1.7968582 1.7631025 2.1937475 0.49245769 0.83243388 0.25404581 0.0023102143
1.8153888 1.7490979 2.1923997 0.49303129 0.83107984 0.25734502 0.0027938813
1.804828 1.7612666 2.1664722 0.48490587 0.83452207 0.2616089 0.0019417298
1.8347284 1.7431681 2.1912992 0.4790785 0.83679354 0.26506653 0.0020034241
1.8305913 1.7530684 2.1382418 0.5008508 0.82497168 0.26185915 0.0021158746
1.8483893 1.7243536 2.1999049 0.48964775 0.8321479 0.26033637 0.0020600006
1.8235315 1.8011851 2.005373 0.49103302 0.82545114 0.27841881 0.0031821951
1.8565024 1.7635165 2.0925345 0.50414771 0.82508785 0.25507841 0.0024486589
1.8622693 1.7836912 2.0200145 0.51131338 0.81606132 0.26944861 0.0035543942
1.8481051 1.7926817 1.9834325 0.51300853 0.81588537 0.26674595 0.0035915072
1.8575667 1.7954966 1.9819708 0.51513416 0.81587976 0.26263469 0.0037703074
1.8860499 1.772738 1.9952483 0.516285 0.81599545 0.2600022 0.0040509268
1.9028383 1.7543848 2.0116129 0.50424373 0.8223837 0.26348308 0.0035222168
1.9121004 1.7494527 2.0261559 0.50255024 0.82267863 0.26578799 0.0024396807
