13.47709942 40.32683563 150.66934204 113 91 93
13.48152256 40.32671356 150.60154724 111 96 93
13.48518276 40.32631302 150.53367615 111 95 98
13.49120808 40.32678223 150.46607971 115 97 97
13.49837399 40.32767487 150.39859009 117 95 98
13.49977970 40.32644272 150.33053589 113 98 103
13.50129604 40.32524872 150.26252747 117 101 104
13.50553608 40.32506180 150.19477844 118 104 104
13.50879383 40.32451248 150.12696838 121 104 101
13.51162624 40.32380676 150.05912781 120 102 100
13.51313114 40.32261276 149.99119568 119 105 102
13.51544285 40.32171631 149.92333984 117 108 99
13.51800060 40.32090759 149.85552979 119 109 102
13.52259922 40.32085419 149.78788757 117 109 106
13.52485180 40.31993484 149.72007751 121 108 102
13.52674198 40.31888580 149.65225220 122 107 102
13.53114605 40.31875610 149.58462524 122 110 101
13.53559589 40.31864929 149.51699829 120 107 103
13.53995991 40.31850433 149.44935608 119 104 104
13.54526997 40.31871033 149.38179016 115 104 103
13.54918194 40.31840134 149.31413269 115 104 98
13.55410671 40.31846619 149.24652100 110 100 98
13.56031895 40.31900024 149.17898560 106 95 93
13.56308746 40.31827164 149.11125183 101 86 88
13.56233311 40.31624603 149.04336548 105 86 90
13.56272221 40.31464767 148.97554016 100 84 84
13.56535816 40.31386566 148.90783691 106 94 94
13.56756496 40.31293106 148.84011841 107 99 97
13.54933453 40.30449677 148.77160645 103 94 85
13.59448910 40.31040192 151.30007935 85 64 71
13.59668636 40.30944824 151.23146057 92 67 71
13.59879780 40.30846405 151.16287231 92 73 77
13.60225010 40.30797195 151.09448242 92 76 77
13.60642910 40.30774689 151.02621460 94 78 79
13.60949612 40.30711365 150.95782471 96 82 79
13.61349773 40.30682373 150.88958740 101 87 87
13.61617184 40.30604935 150.82119751 104 90 87
13.62149715 40.30624390 150.75314331 112 89 95
13.62550068 40.30595398 150.68495178 112 93 97
13.62899494 40.30548096 150.61672974 111 93 93
13.63384914 40.30550385 150.54866028 115 97 93
13.63901997 40.30564117 150.48063660 114 96 94
13.64465427 40.30595016 150.41267395 116 97 99
13.64676952 40.30497360 150.34437561 115 98 104
13.64886189 40.30398560 150.27607727 115 100 103
13.65278339 40.30366898 150.20799255 118 102 102
13.65620518 40.30316925 150.13986206 119 104 99
13.65898991 40.30243683 150.07170105 115 104 102
13.66120625 40.30149841 150.00349426 115 106 99
13.66354275 40.30060196 149.93531799 118 109 104
13.66756725 40.30032349 149.86729431 120 107 101
13.67164326 40.30006027 149.79928589 116 105 100
13.67405033 40.29919052 149.73117065 120 113 107
13.67692089 40.29849243 149.66308594 124 120 111
13.67256546 40.29515457 149.59451294 121 115 103
13.66949368 40.29228592 149.52606201 131 126 104
13.72921467 40.28713989 151.31686401 89 70 72
13.73145580 40.28619766 151.24795532 93 72 77
13.73518085 40.28578949 151.17927551 97 74 80
13.73839855 40.28520203 151.11056519 98 80 80
13.74268818 40.28500366 151.04200745 100 79 84
13.74613857 40.28450012 150.97337341 107 88 92
13.74990368 40.28411102 150.90480042 107 87 88
13.75357342 40.28368759 150.83622742 112 97 94
13.75763798 40.28340912 150.76773071 110 94 97
13.76209545 40.28327179 150.69929504 105 93 95
13.76569843 40.28282166 150.63076782 106 93 85
13.76949215 40.28244781 150.56230164 103 97 85
13.77462101 40.28255463 150.49397278 96 92 83
13.77898502 40.28238297 150.42558289 108 92 92
13.77619553 40.27961731 150.35649109 129 115 112
13.76457119 40.27364731 150.28660583 135 122 114
13.88211918 40.26456451 151.26651001 102 90 78
13.88465405 40.26371765 151.19734192 89 78 74
13.87709713 40.25923157 151.12690735 135 126 117
10.07792473 40.85599899 151.27803040 218 215 199
10.13826561 40.83709717 151.27674866 188 185 163
10.13674545 40.83668518 151.21530151 188 186 168
10.13527584 40.83699417 151.15382385 189 186 167
10.13378429 40.83700562 151.09234619 211 214 199
10.13257313 40.84095764 151.03079224 226 232 214
10.13182640 40.85145569 150.96903992 253 254 246
10.13060188 40.85524750 150.90740967 254 253 243
10.19870853 40.82712555 151.27537537 192 187 156
10.19725037 40.82751465 151.21391296 191 186 162
10.19575024 40.82738876 151.15246582 195 189 168
10.19428253 40.82769775 151.09100342 194 191 167
10.19284630 40.82843781 151.02951050 198 193 171
10.19142342 40.82938766 150.96801758 201 195 176
10.18990135 40.82895660 150.90655518 199 195 179
10.18846798 40.82975006 150.84504700 200 197 184
10.18694210 40.82930374 150.78355408 219 217 207
10.18555546 40.83075333 150.72200012 237 235 225
10.18432236 40.83429718 150.66035461 246 245 239
10.18349838 40.84346008 150.59844971 255 254 251
10.18299484 40.85704041 150.53631592 253 251 246
10.25857830 40.81668091 151.27400208 190 187 168
10.25716114 40.81764984 151.21255493 192 186 169
10.25569344 40.81796265 151.15110779 195 191 171
10.25424099 40.81849670 151.08966064 198 195 172
10.25280571 40.81923676 151.02818298 201 194 174
10.25138092 40.82011414 150.96670532 204 197 178
10.24988747 40.82011414 150.90522766 208 202 182
10.24841022 40.82033539 150.84375000 214 207 187
10.24693298 40.82053757 150.78225708 216 209 186
10.24547672 40.82104492 150.72074890 216 213 194
10.24405098 40.82196808 150.65919495 212 212 194
10.24262142 40.82281494 150.59764099 215 212 197
10.24117279 40.82344818 150.53608704 213 210 198
10.23973274 40.82421494 150.47450256 214 212 201
10.23838234 40.82614136 150.41285706 219 217 210
10.23688793 40.82616425 150.35127258 231 228 223
10.23558903 40.82881165 150.28955078 244 244 240
10.23471928 40.83720016 150.22747803 254 255 250
10.23412418 40.84922028 150.16514587 254 255 251
10.31190586 40.79755402 150.90419006 205 206 188
10.31135464 40.80957413 150.84240723 210 208 191
10.30995560 40.81073761 150.78089905 214 211 192
10.30851269 40.81138229 150.71939087 217 214 196
10.30705833 40.81186676 150.65788269 218 217 199
10.30559254 40.81221008 150.59635925 222 217 201
10.30422783 40.81385422 150.53477478 221 216 204
10.30282593 40.81506348 150.47319031 227 221 204
10.30146980 40.81684875 150.41154480 223 219 201
10.29998302 40.81694794 150.34997559 222 220 201
10.29840946 40.81595612 150.28845215 228 225 208
10.29681873 40.81473541 150.22691345 234 233 217
10.29536724 40.81532669 150.16526794 233 231 216
10.29386997 40.81533813 150.10365295 235 236 223
10.29234982 40.81504059 150.04202271 231 231 220
10.29079342 40.81431580 149.98040771 228 228 219
10.28944016 40.81620026 149.91860962 240 233 226
10.28858662 40.82453537 149.85632324 254 255 249
10.28792000 40.83534622 149.79380798 253 254 250
10.28364563 40.79945374 149.73468018 254 254 250
10.36160374 40.78002548 150.53456116 215 215 204
10.36215973 40.80554199 150.47196960 224 225 209
10.36080933 40.80739594 150.41033936 224 226 209
10.35934353 40.80779266 150.34877014 221 221 205
10.35776043 40.80672455 150.28724670 227 227 212
10.35620308 40.80601883 150.22570801 239 236 217
10.35465813 40.80544281 150.16413879 245 241 220
10.35321045 40.80611420 150.10249329 246 240 221
10.35171700 40.80618286 150.04084778 245 240 221
10.35015106 40.80538559 149.97924805 243 236 222
10.34862709 40.80508423 149.91760254 244 237 226
10.34713173 40.80521011 149.85591125 249 247 234
10.34564400 40.80541229 149.79418945 253 255 244
10.34415531 40.80559540 149.73245239 254 254 249
10.34271812 40.80644226 149.67062378 253 254 246
10.34127235 40.80719757 149.60879517 253 254 246
10.34002399 40.81041718 149.54673767 253 254 249
10.33919716 40.81900787 149.48417664 255 255 251
10.33855343 40.82991791 149.42137146 254 254 251
10.41471100 40.79516983 150.10134888 245 242 229
10.41330242 40.79626465 150.03967285 246 244 223
10.41173363 40.79539108 149.97808838 246 245 231
10.41025066 40.79559708 149.91641235 251 252 236
10.40872478 40.79529190 149.85476685 254 255 243
10.40726662 40.79578400 149.79302979 254 255 248
10.40576553 40.79582214 149.73130798 255 255 250
10.40431023 40.79637909 149.66952515 254 255 250
10.40287113 40.79713440 149.60771179 253 254 241
10.40141582 40.79774475 149.54586792 249 250 235
10.39998627 40.79863739 149.48397827 248 247 229
10.39858818 40.79994965 149.42202759 246 244 232
10.39711857 40.80038834 149.36012268 244 242 230
10.39568233 40.80126190 149.29814148 245 245 234
10.39436436 40.80357361 149.23600769 246 246 238
10.39304829 40.80594635 149.17381287 242 243 237
10.39216995 40.81369019 149.11105347 243 244 239
10.39141846 40.82301712 149.04806519 255 255 255
10.46870136 40.78387833 149.73028564 252 253 247
10.46737194 40.78594971 149.66839600 254 254 249
10.46590805 40.78642273 149.60661316 253 255 248
10.46450329 40.78760910 149.54473877 253 255 241
10.46307278 40.78850174 149.48286438 251 253 239
10.46167660 40.78982544 149.42092896 250 248 232
10.46018791 40.79004669 149.35905457 252 253 239
10.45874023 40.79077148 149.29710388 253 254 242
10.45742607 40.79308701 149.23497009 249 250 234
10.45607853 40.79503250 149.17283630 244 241 232
10.45452881 40.79457092 149.11090088 230 229 224
10.45287323 40.79286957 149.04905701 228 224 221
10.45129013 40.79203415 148.98712158 230 226 223
10.44973373 40.79154968 148.92510986 228 227 223
10.44822216 40.79157257 148.86300659 237 240 233
10.44682693 40.79302979 148.80072021 245 246 241
10.44578648 40.79868317 148.73791504 254 254 252
10.44525909 40.81055450 148.67433167 254 254 254
10.51698112 40.74228668 149.42318726 235 236 228
10.51872826 40.77980042 149.35809326 245 248 239
10.51743221 40.78226852 149.29598999 254 254 245
10.51602173 40.78342438 149.23397827 253 254 242
10.51467896 40.78536224 149.17185974 246 246 234
10.51318836 40.78563690 149.10986328 237 237 229
10.51149178 40.78349686 149.04808044 236 234 226
10.50986099 40.78215790 148.98620605 240 237 230
10.50836086 40.78233337 148.92413330 241 238 231
10.50676632 40.78141022 148.86215210 240 240 232
10.50528717 40.78185272 148.79998779 242 242 234
10.50373745 40.78149414 148.73788452 244 241 234
10.50226212 40.78199387 148.67564392 237 236 231
10.50080967 40.78277588 148.61332703 233 233 231
10.49939060 40.78398895 148.55093384 233 233 231
10.49794769 40.78489685 148.48852539 243 243 243
10.49663067 40.78731537 148.42588806 248 248 248
10.49577713 40.79514313 148.36250305 253 255 254
10.49543190 40.80889893 148.29826355 253 254 253
10.57225990 40.77010345 148.98536682 232 233 225
10.57084370 40.77122498 148.92320251 243 244 235
10.56932831 40.77124023 148.86112976 248 244 241
10.56782532 40.77140045 148.79901123 246 244 236
10.56632137 40.77154541 148.73686218 248 244 241
10.56480122 40.77154541 148.67469788 247 244 239
10.56337643 40.77262115 148.61236572 243 242 238
10.56196117 40.77381897 148.54997253 236 236 236
10.56050110 40.77452469 148.48760986 231 231 231
10.55903816 40.77520752 148.42520142 225 226 224
10.55760288 40.77624130 148.36270142 227 228 223
10.55613136 40.77683258 148.30023193 229 229 229
10.55463028 40.77711487 148.23774719 224 224 224
10.55319023 40.77812958 148.17512512 223 222 227
10.55181789 40.77990723 148.11235046 227 226 231
10.55056477 40.78306580 148.04933167 248 249 251
10.54990482 40.79299164 147.98527527 249 249 251
10.54903793 40.80059052 147.92147827 255 255 255
10.62468529 40.75964355 148.61174011 237 238 233
10.62353134 40.76367188 148.54902649 239 240 236
10.62203979 40.76400757 148.48672485 235 235 233
10.62064648 40.76541519 148.42424011 233 233 231
10.61909580 40.76514435 148.36192322 239 238 236
10.61770344 40.76660919 148.29933167 235 235 233
10.61625671 40.76747894 148.23678589 232 232 232
10.61472702 40.76747131 148.17431641 231 231 233
10.61332035 40.76882935 148.11161804 231 230 235
10.61194611 40.77053833 148.04881287 225 226 228
10.61057472 40.77230072 147.98596191 221 220 228
10.60920525 40.77412415 147.92303467 214 214 222
10.60760117 40.77334595 147.86044312 213 214 219
10.60605621 40.77326584 147.79771423 212 215 224
10.60458469 40.77397919 147.73481750 226 229 236
10.60320854 40.77575684 147.67169189 238 242 245
10.60231304 40.78292465 147.60766602 248 252 254
10.60153770 40.79144287 147.54331970 253 254 255
10.60253525 40.81970215 147.47566223 253 254 254
10.67508507 40.75605011 148.23614502 237 238 235
10.67372417 40.75785065 148.17344666 240 242 241
10.67226505 40.75862885 148.11082458 242 243 245
10.67091942 40.76063538 148.04800415 240 240 242
10.66959572 40.76290131 147.98507690 233 234 236
10.66826439 40.76509476 147.92211914 226 227 231
10.66662216 40.76394653 147.85958862 221 224 231
10.66511154 40.76423645 147.79681396 220 223 228
10.66362572 40.76480484 147.73393250 220 224 233
10.66216373 40.76564789 147.67097473 216 218 230
10.66054535 40.76481628 147.60823059 215 218 227
10.65901089 40.76490784 147.54528809 218 218 230
10.65753365 40.76564026 147.48219299 216 219 228
10.65597534 40.76548767 147.41918945 220 224 227
10.65455341 40.76683807 147.35588074 215 214 228
10.65314102 40.76831818 147.29249573 241 246 250
10.72948170 40.73770905 147.86102295 222 228 228
10.72946739 40.75366211 147.79591370 226 232 232
10.72796154 40.75401688 147.73307800 226 231 234
10.72646999 40.75450134 147.67018127 223 226 231
10.72494698 40.75467682 147.60728455 221 224 231
10.72335815 40.75420380 147.54444885 221 224 231
10.72182465 40.75428009 147.48147583 220 224 235
10.72032547 40.75477982 147.41838074 219 223 232
10.71888828 40.75591278 147.35511780 219 222 237
10.71739769 40.75653076 147.29188538 220 224 236
10.78068066 40.74034119 147.48135376 223 224 226
10.77957344 40.74485016 147.41761780 221 225 228
10.77815247 40.74613953 147.35433960 224 223 231
10.77672005 40.74732208 147.29101563 224 227 234
10.15167713 40.83549500 151.30734253 94 61 59
10.15155315 40.83501434 151.24655151 92 69 70
10.15133095 40.83494568 151.18577576 92 67 70
10.15115643 40.83467865 151.12498474 93 70 66
10.15077782 40.83525085 151.06422424 120 99 94
10.15041733 40.83574677 151.00344849 114 88 87
10.14940262 40.83894348 150.94268799 105 86 84
10.14425468 40.85916519 150.88186646 60 53 52
10.21421814 40.82566071 151.30671692 92 62 59
10.21409225 40.82518005 151.24597168 94 61 66
10.21371078 40.82575989 151.18527222 96 68 65
10.21341896 40.82597351 151.12455750 100 71 69
10.21319389 40.82590485 151.06382751 101 70 78
10.21276188 40.82669067 151.00312805 105 75 79
10.21246910 40.82690811 150.94241333 107 80 78
10.21214294 40.82726288 150.88169861 114 86 83
10.21205711 40.82661438 150.82098389 115 92 87
10.21178436 40.82674408 150.76025391 118 92 88
10.21135807 40.82751846 150.69953918 119 97 92
10.21100140 40.82800293 150.63879395 113 96 83
10.21057701 40.82876587 150.57806396 117 105 97
10.20946884 40.83238220 150.51725769 106 89 84
10.20570755 40.84703064 150.45623779 80 70 59
10.28035355 40.81526566 151.30604553 92 63 58
10.28012466 40.81520081 151.24537659 91 61 58
10.27989388 40.81514359 151.18472290 96 66 65
10.27956486 40.81549835 151.12406921 99 70 70
10.27918434 40.81607056 151.06341553 101 75 72
10.27883720 40.81649780 151.00277710 111 75 77
10.27869511 40.81607437 150.94212341 104 81 72
10.27840233 40.81627655 150.88146973 104 87 79
10.27810955 40.81649017 150.82081604 109 89 84
10.27775002 40.81697845 150.76014709 110 87 78
10.27743912 40.81726074 150.69949341 112 90 78
10.27698040 40.81816864 150.63882446 112 85 76
10.27665710 40.81850815 150.57814026 120 93 81
10.27619934 40.81941223 150.51745605 114 90 89
10.27560616 40.82088852 150.45674133 112 85 81
10.27504539 40.82221985 150.39602661 117 87 83
10.27508163 40.82105255 150.33535767 120 91 91
10.27518559 40.81959915 150.27468872 129 104 101
10.27501869 40.81928253 150.21398926 126 101 95
10.27480125 40.81917953 150.15327454 121 100 92
10.27434921 40.82006836 150.09251404 115 94 88
10.27311897 40.82422638 150.03161621 93 74 72
10.26761818 40.84634018 149.96998596 94 79 72
10.34777832 40.80479431 151.30535889 93 61 58
10.34758186 40.80458069 151.24476624 91 67 61
10.34733582 40.80458832 151.18417358 94 69 61
10.34702110 40.80487823 151.12358093 104 75 69
10.34664154 40.80545044 151.06300354 104 76 72
10.34626293 40.80602264 151.00241089 105 73 77
10.34585094 40.80673599 150.94181824 104 80 76
10.34580994 40.80587006 150.88122559 106 80 80
10.34548283 40.80622482 150.82063293 113 83 80
10.34507179 40.80693054 150.76004028 107 84 75
10.34466553 40.80762863 150.69943237 112 87 79
10.34435654 40.80789948 150.63882446 113 84 81
10.34406662 40.80810165 150.57821655 108 85 77
10.34356022 40.80921936 150.51759338 113 83 80
10.34296989 40.81069946 150.45693970 113 87 78
10.34234619 40.81231689 150.39628601 115 87 84
10.34231186 40.81143188 150.33566284 116 82 84
10.34246063 40.80976868 150.27507019 119 90 85
10.34239388 40.80902100 150.21443176 114 94 90
10.34220695 40.80878448 150.15379333 112 95 88
10.34197426 40.80874252 150.09312439 119 94 86
10.34180832 40.80841827 150.03247070 114 92 86
10.34175873 40.80760193 149.97181702 115 88 80
10.34151077 40.80762863 149.91111755 113 87 80
10.34127998 40.80757904 149.85041809 115 89 82
10.34101677 40.80767822 149.78968811 126 103 95
10.34085464 40.80733490 149.72897339 128 111 101
10.34029007 40.80870819 149.66815186 131 114 104
10.33971119 40.81015015 149.60731506 123 103 97
10.33765984 40.81784821 149.54608154 116 95 90
10.41076374 40.79574966 151.30474854 89 63 56
10.41061211 40.79532623 151.24420166 94 64 62
10.41046047 40.79490662 151.18365479 96 65 59
10.40997696 40.79590607 151.12312317 98 74 71
10.40970898 40.79598236 151.06259155 99 78 74
10.40932846 40.79654694 151.00207520 106 79 71
10.40899563 40.79690552 150.94154358 102 75 79
10.40871620 40.79703522 150.88099670 108 79 82
10.40847015 40.79702759 150.82046509 109 78 76
10.40822220 40.79701996 150.75993347 101 83 76
10.40780830 40.79772949 150.69938660 109 85 75
10.40738297 40.79849243 150.63883972 110 82 80
10.40702248 40.79898071 150.57827759 112 83 79
10.40661240 40.79966736 150.51771545 113 88 83
10.40573883 40.80236053 150.45710754 112 87 84
10.40539646 40.80276871 150.39651489 115 88 84
10.40540314 40.80167007 150.33596802 112 87 81
10.40552902 40.80007172 150.27542114 115 88 80
10.40530205 40.79998016 150.21484375 113 92 87
10.40514755 40.79958344 150.15425110 117 96 91
10.40489101 40.79962158 150.09364319 116 96 87
10.40481853 40.79887009 150.03305054 118 92 84
10.40471268 40.79826355 149.97245789 119 93 85
10.40455818 40.79786682 149.91183472 119 94 81
10.40438843 40.79753876 149.85119629 122 98 87
10.40402222 40.79805374 149.79051208 121 98 87
10.40372086 40.79829025 149.72982788 121 101 85
10.40358734 40.79780579 149.66915894 119 101 84
10.40328884 40.79803467 149.60844421 121 98 86
10.40275669 40.79926300 149.54765320 126 97 86
10.40234280 40.79998779 149.48687744 124 93 83
10.40189743 40.80084229 149.42605591 116 94 83
10.40145397 40.80169296 149.36521912 122 101 92
10.40104294 40.80240631 149.30436707 131 108 97
10.40048504 40.80374908 149.24345398 126 110 99
10.39961147 40.80645370 149.18240356 121 103 89
10.39829445 40.81105804 149.12118530 116 96 79
10.39383125 40.82918167 149.05886841 87 78 67
10.47803593 40.78515625 151.30406189 90 58 59
10.47791290 40.78459167 151.24357605 94 63 68
10.47764397 40.78466034 151.18310547 98 69 73
10.47743988 40.78445435 151.12263489 95 75 76
10.47712326 40.78474045 151.06216431 98 79 73
10.47667694 40.78558731 151.00169373 97 80 72
10.47637653 40.78580093 150.94123840 102 79 71
10.47604561 40.78615189 150.88076782 105 82 68
10.47582912 40.78599548 150.82029724 104 79 75
10.47548103 40.78642273 150.75981140 106 76 74
10.47512054 40.78690338 150.69934082 108 81 76
10.47469139 40.78768158 150.63885498 110 80 80
10.47434711 40.78808594 150.57835388 110 83 76
10.47385502 40.78913879 150.51785278 110 90 78
10.47313499 40.79118729 150.45730591 114 89 86
10.47264481 40.79222870 150.39677429 110 90 87
10.47266388 40.79106903 150.33628845 105 84 81
10.47279453 40.78940582 150.27580261 113 88 82
10.47275066 40.78851700 150.21531677 114 87 81
10.47254181 40.78833771 150.15478516 118 91 87
10.47225189 40.78852081 150.09423828 117 95 86
10.47210979 40.78805542 150.03369141 119 93 85
10.47203255 40.78730774 149.97315979 121 95 86
10.47187614 40.78691101 149.91261292 117 101 86
10.47183514 40.78600693 149.85206604 123 102 89
10.47141647 40.78675079 149.79142761 124 106 89
10.47109795 40.78705597 149.73080444 122 104 87
10.47100925 40.78636169 149.67021179 116 97 83
10.47047806 40.78759384 149.60951233 123 100 84
10.47019577 40.78775024 149.54884338 120 100 85
10.46956825 40.78939819 149.48806763 119 98 85
10.46930122 40.78948212 149.42736816 122 94 86
10.46892166 40.79005432 149.36660767 117 100 85
10.46844482 40.79105377 149.30580139 120 102 90
10.46775627 40.79297638 149.24491882 124 100 88
10.46719933 40.79431915 149.18403625 121 101 84
10.46693993 40.79437256 149.12321472 112 99 82
10.46707153 40.79273224 149.06251526 117 94 82
10.46717262 40.79121399 149.00178528 123 102 94
10.46720886 40.78998566 148.94100952 132 106 90
10.46698284 40.78989410 148.88012695 134 118 96
10.46674538 40.78985596 148.81921387 141 123 103
10.46647358 40.78996277 148.75827026 138 122 102
10.46608925 40.79056549 148.69725037 138 126 102
10.46433067 40.79713440 148.63562012 110 93 76
10.54504967 40.77478790 151.30339050 90 58 61
10.54482746 40.77465057 151.24296570 90 62 61
10.54466820 40.77422333 151.18255615 95 66 68
10.54433346 40.77458191 151.12214661 93 73 74
10.54393196 40.77522659 151.06173706 95 78 71
10.54361439 40.77550507 151.00132751 102 75 68
10.54323196 40.77606964 150.94091797 104 77 70
10.54302597 40.77585602 150.88052368 104 80 78
10.54282379 40.77563095 150.82011414 101 77 77
10.54241180 40.77632904 150.75968933 107 72 73
10.54198265 40.77710342 150.69926453 103 82 79
10.54162025 40.77758789 150.63883972 105 81 79
10.54114437 40.77857208 150.57839966 111 84 77
10.54058838 40.77990723 150.51795959 114 85 78
10.54004669 40.78117752 150.45748901 113 90 87
10.53965473 40.78179169 150.39703369 112 87 84
10.53950500 40.78134155 150.33657837 114 81 78
10.53974533 40.77917099 150.27616882 110 83 81
10.53951645 40.77907181 150.21571350 112 92 82
10.53935146 40.77869034 150.15525818 115 93 85
10.53925419 40.77800751 150.09478760 120 94 89
10.53902626 40.77790070 150.03430176 116 92 84
10.53888130 40.77743912 149.97381592 114 94 81
10.53891373 40.77618408 149.91336060 117 96 85
10.53872108 40.77592850 149.85284424 119 102 86
10.53830147 40.77667236 149.79228210 122 104 85
10.53801346 40.77684021 149.73171997 125 105 87
10.53795147 40.77600479 149.67120361 125 99 88
10.53743744 40.77716446 149.61056519 124 101 86
10.53720093 40.77710724 149.54997253 121 100 88
10.53659058 40.77869415 149.48925781 122 100 88
10.53614235 40.77955627 149.42857361 122 99 83
10.53585911 40.77970505 149.36790466 121 103 86
10.53546333 40.78034592 149.30718994 123 104 88
10.53483963 40.78199005 149.24636841 126 104 86
10.53412056 40.78404999 149.18550110 125 103 89
10.53380966 40.78432465 149.12474060 118 98 83
10.53411293 40.78189087 149.06414795 119 97 84
10.53436756 40.77967453 149.00354004 120 102 88
10.53415585 40.77951050 148.94274902 129 110 92
10.53394318 40.77935028 148.88192749 134 118 93
10.53384399 40.77868652 148.82113647 136 117 101
10.53357124 40.77878952 148.76025391 140 122 101
10.53336143 40.77861786 148.69935608 141 125 101
10.53289413 40.77957535 148.63833618 141 125 100
10.53244591 40.78044891 148.57728577 138 122 99
10.53214264 40.78069305 148.51628113 131 115 100
10.53166580 40.78170013 148.45515442 132 114 103
10.53150940 40.78128815 148.39413452 132 104 93
10.53096867 40.78256989 148.33291626 126 113 104
10.53063869 40.78292847 148.27175903 124 112 97
10.52955246 40.78660965 148.21018982 117 105 91
10.52599716 40.80114746 148.14730835 105 88 72
10.52457237 40.80631638 148.08543396 126 116 91
10.60801125 40.76575470 151.30276489 87 56 56
10.60779953 40.76554871 151.24240112 90 60 60
10.60760498 40.76526642 151.18203735 93 61 64
10.60726738 40.76561737 151.12168884 93 67 66
10.60701180 40.76560974 151.06134033 98 70 69
10.60661030 40.76625061 151.00099182 101 69 74
10.60619354 40.76696014 150.94062805 95 71 69
10.60608196 40.76631927 150.88027954 99 75 71
10.60574913 40.76665878 150.81993103 99 75 73
10.60538197 40.76715088 150.75956726 101 76 72
10.60499954 40.76771164 150.69920349 105 75 75
10.60461998 40.76826477 150.63883972 99 79 68
10.60417557 40.76909637 150.57846069 112 81 76
10.60363483 40.77037048 150.51806641 115 87 82
10.60306358 40.77177429 150.45765686 114 89 84
10.60265160 40.77247238 150.39724731 117 87 84
10.60262680 40.77144241 150.33686829 111 83 80
10.60268211 40.77006531 150.27650452 107 78 75
10.60257912 40.76938629 150.21611023 111 87 79
10.60244179 40.76886368 150.15571594 114 93 83
10.60225868 40.76854324 150.09529114 117 92 86
10.60215759 40.76786041 150.03488159 116 92 88
10.60203743 40.76725769 149.97447205 113 91 86
10.60184097 40.76700211 149.91401672 117 94 85
10.60159683 40.76696396 149.85356140 120 100 85
10.60133553 40.76699066 149.79307556 122 100 86
10.60104275 40.76716614 149.73257446 122 101 88
10.60086632 40.76682281 149.67208862 124 100 89
10.60052681 40.76720428 149.61154175 124 100 88
10.60014153 40.76779175 149.55097961 118 98 85
10.59975624 40.76837921 149.49038696 123 99 86
10.59927654 40.76938248 149.42974854 120 100 82
10.59890938 40.76988983 149.36911011 119 101 84
10.59846306 40.77075195 149.30844116 127 101 89
10.59795380 40.77189255 149.24771118 124 105 91
10.59713936 40.77438736 149.18687439 125 103 90
10.59690475 40.77431488 149.12619019 115 97 83
10.59713364 40.77216339 149.06564331 121 99 88
10.59713936 40.77101898 149.00500488 123 103 86
10.59708309 40.77014923 148.94432068 128 109 95
10.59702682 40.76927185 148.88362122 130 114 91
10.59695625 40.76847076 148.82290649 127 120 94
10.59659863 40.76893616 148.76203918 135 120 101
10.59636879 40.76883698 148.70120239 142 120 106
10.59599686 40.76936722 148.64027405 139 121 99
10.59562492 40.76989746 148.57933044 139 121 101
10.59522343 40.77056503 148.51832581 142 119 105
10.59479237 40.77136230 148.45727539 138 117 98
10.59448814 40.77159500 148.39625549 129 110 95
10.59400940 40.77260208 148.33512878 130 117 101
10.59361172 40.77324677 148.27398682 130 111 96
10.59328175 40.77360153 148.21286011 130 110 99
10.59274387 40.77487183 148.15158081 121 107 96
10.59233570 40.77556610 148.09033203 125 108 98
10.59181786 40.77675247 148.02897644 116 104 92
10.59101295 40.77921295 147.96743774 117 99 89
10.59065628 40.77967072 147.90608215 109 95 86
10.59051228 40.77919769 147.84483337 100 90 80
10.58937931 40.78311539 147.78295898 106 94 81
10.58816719 40.78738403 147.72097778 102 88 79
10.58347511 40.80712128 147.65682983 99 89 80
10.67460918 40.75491333 151.30207825 90 60 58
10.67426682 40.75527954 151.24179077 91 61 63
10.67423058 40.75427246 151.18147278 92 62 64
10.67377853 40.75513077 151.12120056 95 65 65
10.67355156 40.75498962 151.06089783 98 68 70
10.67310429 40.75582886 151.00061035 97 72 75
10.67284584 40.75582886 150.94032288 95 74 69
10.67261887 40.75568390 150.88003540 106 71 67
10.67231369 40.75588989 150.81974792 99 74 70
10.67199326 40.75616455 150.75944519 100 78 80
10.67147064 40.75735855 150.69914246 101 76 79
10.67108822 40.75791168 150.63882446 99 76 70
10.67078495 40.75811768 150.57852173 109 80 76
10.67018127 40.75966644 150.51817322 108 83 77
10.66965961 40.76085663 150.45783997 109 92 83
10.66909027 40.76226044 150.39747620 112 91 82
10.66902637 40.76138306 150.33715820 110 80 76
10.66909218 40.75993347 150.27685547 108 84 81
10.66907978 40.75882721 150.21653748 109 86 81
10.66903305 40.75787354 150.15620422 113 92 85
10.66875267 40.75798416 150.09584045 116 95 84
10.66864300 40.75731659 150.03549194 118 91 83
10.66847420 40.75691986 149.97512817 116 93 85
10.66838455 40.75616455 149.91476440 119 95 88
10.66819954 40.75584412 149.85437012 116 97 86
10.66787338 40.75615692 149.79394531 121 95 87
10.66762829 40.75610733 149.73350525 120 96 86
10.66736603 40.75612640 149.67306519 117 98 85
10.66720104 40.75572205 149.61262512 122 97 90
10.66667080 40.75695801 149.55207825 119 97 83
10.66622162 40.75782776 149.49153137 118 96 83
10.66578674 40.75862885 149.43096924 118 98 86
10.66544914 40.75899887 149.37040710 117 98 85
10.66495514 40.76007843 149.30978394 120 101 88
10.66436768 40.76157379 149.24909973 121 102 93
10.66363621 40.76371384 149.18833923 124 100 88
10.66333389 40.76392365 149.12770081 115 94 78
10.66350746 40.76199341 149.06719971 117 98 83
10.66391945 40.75898743 149.00675964 121 103 84
10.66366768 40.75897980 148.94607544 126 107 93
10.66351128 40.75853348 148.88540649 130 115 94
10.66340065 40.75788116 148.82473755 132 120 98
10.66324711 40.75742722 148.76400757 141 120 99
10.66293526 40.75768661 148.70320129 142 124 100
10.66257668 40.75815582 148.64234924 140 126 100
10.66196728 40.75975037 148.58135986 144 123 102
10.66168880 40.75985718 148.52047729 139 122 106
10.66127014 40.76059341 148.45948792 139 120 106
10.66107559 40.76032639 148.39859009 136 121 100
10.66043854 40.76204681 148.33743286 134 118 102
10.66026115 40.76170349 148.27647400 134 115 100
10.65978432 40.76270294 148.21533203 132 115 99
10.65934181 40.76354980 148.15415955 129 116 99
10.65915298 40.76325226 148.09309387 129 111 101
10.65850735 40.76501846 148.03173828 128 111 101
10.65767479 40.76762390 147.97024536 127 109 98
10.65717316 40.76873016 147.90888977 120 101 94
10.65705299 40.76812744 147.84770203 118 98 89
10.65693474 40.76752090 147.78648376 117 103 92
10.65651894 40.76824951 147.72505188 117 100 90
10.65630913 40.76805115 147.66369629 113 99 88
10.65602207 40.76819611 147.60226440 111 96 91
10.65583420 40.76790237 147.54084778 113 98 92
10.65551853 40.76817322 147.47930908 114 95 97
10.65533257 40.76786804 147.41781616 109 97 85
10.65458202 40.77010345 147.35589600 106 94 80
10.65362930 40.77324677 147.29379272 100 85 78
10.73886299 40.74631500 151.30145264 89 61 57
10.73871040 40.74582672 151.24119568 87 61 61
10.73852825 40.74546051 151.18095398 87 62 65
10.73812675 40.74610519 151.12072754 91 66 62
10.73785019 40.74617767 151.06048584 97 67 67
10.73757553 40.74623871 151.00025940 99 70 66
10.73726940 40.74644852 150.94001770 106 68 65
10.73694992 40.74672318 150.87979126 101 73 69
10.73672104 40.74657440 150.81954956 100 76 76
10.73637104 40.74698639 150.75930786 103 72 77
10.73595810 40.74768829 150.69906616 104 73 70
10.73559189 40.74817276 150.63880920 102 74 70
10.73517990 40.74887848 150.57855225 107 78 73
10.73453331 40.75064468 150.51826477 114 80 78
10.73426247 40.75069809 150.45799255 121 87 84
10.73352242 40.75288773 150.39767456 118 84 80
10.73344231 40.75207520 150.33741760 113 78 75
10.73379898 40.74927139 150.27720642 108 85 77
10.73353195 40.74931335 150.21690369 111 88 79
10.73345089 40.74850082 150.15663147 110 93 82
10.73315239 40.74868011 150.09632874 119 95 86
10.73312092 40.74765396 150.03604126 116 96 87
10.73312283 40.74647141 149.97576904 117 96 84
10.73290443 40.74629211 149.91543579 120 96 88
10.73273468 40.74589539 149.85511780 118 97 88
10.73236084 40.74642563 149.79472351 121 97 88
10.73214340 40.74624252 149.73435974 118 97 87
10.73189545 40.74620056 149.67398071 116 97 86
10.73171234 40.74586487 149.61360168 117 96 85
10.73118401 40.74710083 149.55310059 119 98 85
10.73072147 40.74804306 149.49261475 118 97 82
10.73039818 40.74834442 149.43212891 113 96 87
10.72999859 40.74900055 149.37161255 118 99 85
10.72955132 40.74986267 149.31106567 115 100 88
10.72896576 40.75136566 149.25044250 124 100 91
10.72828579 40.75329590 149.18975830 126 100 88
10.72777939 40.75443649 149.12910461 118 97 80
10.72810364 40.75179291 149.06871033 115 96 81
10.72833347 40.74958801 149.00827026 120 101 88
10.72828102 40.74865341 148.94772339 126 107 92
10.72818565 40.74792480 148.88713074 133 110 94
10.72788715 40.74811935 148.82644653 138 115 97
10.72780609 40.74732208 148.76582336 137 122 93
10.72758770 40.74715424 148.70510864 138 121 101
10.72718239 40.74783325 148.64428711 142 123 106
10.72657585 40.74943542 148.58335876 143 125 103
10.72623444 40.74982834 148.52250671 145 122 108
10.72591019 40.75014496 148.46162415 138 119 104
10.72555542 40.75059509 148.40071106 138 120 106
10.72515488 40.75125504 148.33972168 138 118 109
10.72480202 40.75170135 148.27873230 136 116 107
10.72448540 40.75198364 148.21772766 134 116 102
10.72419739 40.75213242 148.15670776 128 114 103
10.72378635 40.75284195 148.09558105 131 115 102
10.72309494 40.75482941 148.03427124 132 116 101
10.72221947 40.75765228 147.97279358 128 109 102
10.72189140 40.75798035 147.91159058 121 104 97
10.72167397 40.75781250 147.85041809 124 101 93
10.72147465 40.75756073 147.78921509 118 104 93
10.72116661 40.75780106 147.72790527 119 102 92
10.72064209 40.75902557 147.66641235 117 100 92
10.72071171 40.75755310 147.60527039 114 101 95
10.72059631 40.75691986 147.54396057 118 97 94
10.72012520 40.75790405 147.48237610 113 98 101
10.71993446 40.75760651 147.42094421 112 94 94
10.71953011 40.75829315 147.35931396 112 97 90
10.71924877 40.75840759 147.29772949 110 99 93
10.80854225 40.73516464 151.30075073 91 62 58
10.80836868 40.73474121 151.24055481 91 62 64
10.80805683 40.73494720 151.18037415 93 63 61
10.80782318 40.73480225 151.12020874 99 65 63
10.80737305 40.73564911 151.06004333 99 65 55
10.80704498 40.73593903 150.99986267 97 66 63
10.80683041 40.73570633 150.93969727 94 71 63
10.80658054 40.73562622 150.87951660 94 73 70
10.80634880 40.73547745 150.81935120 102 70 73
10.80585575 40.73653793 150.75917053 101 71 73
10.80545425 40.73716736 150.69897461 101 74 67
10.80508614 40.73765182 150.63879395 104 75 61
10.80474758 40.73799133 150.57859802 109 79 71
10.80431747 40.73875427 150.51838684 112 83 80
10.80367088 40.74052429 150.45816040 115 85 77
10.80297947 40.74250793 150.39790344 114 87 79
10.80312347 40.74061584 150.33772278 109 82 77
10.80322075 40.73895645 150.27754211 112 87 79
10.80302429 40.73864746 150.21733093 112 93 85
10.80283070 40.73832703 150.15710449 118 94 85
10.80266571 40.73786926 150.09686279 119 101 92
10.80270386 40.73648071 150.03666687 118 95 88
10.80249405 40.73623657 149.97640991 116 93 84
10.80250263 40.73498535 149.91618347 116 96 88
10.80214024 40.73545074 149.85588074 121 97 89
10.80190277 40.73533630 149.79559326 119 98 86
10.80160332 40.73550415 149.73527527 117 97 85
10.80145836 40.73496628 149.67497253 118 96 88
10.80119324 40.73498535 149.61463928 117 100 84
10.80075645 40.73579407 149.55424500 118 99 86
10.80024242 40.73695755 149.49378967 117 101 86
10.79996109 40.73704529 149.43339539 116 98 85
10.79958916 40.73755646 149.37295532 117 98 84
10.79909229 40.73863983 149.31243896 112 103 86
10.79855156 40.73992920 149.25189209 120 101 87
10.79779339 40.74222565 149.19125366 122 96 82
10.79737759 40.74294281 149.13069153 114 94 81
10.79779816 40.73979568 149.07040405 116 95 85
10.79787827 40.73822403 149.00997925 117 101 86
10.79784870 40.73715591 148.94950867 125 106 89
10.79755878 40.73728561 148.88891602 130 107 93
10.79741001 40.73677826 148.82833862 131 112 95
10.79723167 40.73639679 148.76774597 134 118 93
10.79705238 40.73602295 148.70712280 140 118 104
10.79665756 40.73664093 148.64636230 144 122 108
10.79618835 40.73760223 148.58555603 139 120 103
10.79575062 40.73841858 148.52473450 141 122 105
10.79554558 40.73816681 148.46397400 139 122 102
10.79506302 40.73919678 148.40306091 138 121 103
10.79473591 40.73950195 148.34217834 137 121 106
10.79439545 40.73987579 148.28126526 137 118 104
10.79399300 40.74052429 148.22029114 132 116 103
10.79370022 40.74067688 148.15931702 132 114 102
10.79314613 40.74203491 148.09819031 136 114 100
10.79257965 40.74344635 148.03700256 134 114 103
10.79175186 40.74606705 147.97563171 130 112 102
10.79140282 40.74648285 147.91447449 124 107 100
10.79116154 40.74638367 147.85334778 120 103 95
10.79106331 40.74564362 147.79226685 120 106 95
10.79065704 40.74631882 147.73097229 116 104 92
10.79031563 40.74670029 147.66967773 115 101 92
10.79005241 40.74671936 147.60838318 113 100 92
10.78998947 40.74580383 147.54716492 115 95 94
10.78974247 40.74574280 147.48580933 118 99 95
10.78942299 40.74601746 147.42434692 114 99 92
10.78891945 40.74714661 147.36273193 113 98 93
10.78871155 40.74690247 147.30125427 115 102 94
10.86873817 40.72636032 151.30014038 90 59 59
10.86859226 40.72578430 151.24000549 93 62 67
10.86824799 40.72614288 151.17988586 95 64 61
10.86804390 40.72584534 151.11976624 93 66 59
10.86768341 40.72628021 151.05964661 95 70 65
10.86723518 40.72711945 150.99952698 100 66 65
10.86698341 40.72704697 150.93940735 94 69 62
10.86680984 40.72660065 150.87928772 97 71 70
10.86649895 40.72681046 150.81916809 98 70 67
10.86618805 40.72701645 150.75903320 100 73 66
10.86575699 40.72778320 150.69891357 100 74 61
10.86540222 40.72820282 150.63877869 101 79 66
10.86506081 40.72853851 150.57862854 106 79 68
10.86446285 40.73009491 150.51846313 111 83 79
10.86384964 40.73171234 150.45828247 112 88 75
10.86328125 40.73312378 150.39810181 111 85 79
10.86337280 40.73146057 150.33796692 107 81 82
10.86349583 40.72964478 150.27784729 109 88 81
10.86337185 40.72898102 150.21768188 115 95 82
10.86322117 40.72844696 150.15751648 118 92 88
10.86288548 40.72877502 150.09732056 121 97 87
10.86279392 40.72796249 150.03715515 122 96 91
10.86285782 40.72643280 149.97700500 116 92 88
10.86272144 40.72582626 149.91680908 119 92 87
10.86243439 40.72592926 149.85656738 123 99 91
10.86211777 40.72617722 149.79631042 123 98 91
10.86189270 40.72599030 149.73606873 114 94 85
10.86177444 40.72530365 149.67582703 115 96 84
10.86136627 40.72598267 149.61550903 116 97 83
10.86097717 40.72657013 149.55517578 115 95 83
10.86046314 40.72772980 149.49478149 119 100 86
10.86008835 40.72825623 149.43441772 115 100 87
10.85969734 40.72884369 149.37400818 119 100 84
10.85921669 40.72985458 149.31356812 117 104 86
10.85847855 40.73207474 149.25300598 124 102 89
10.85789108 40.73358154 149.19247437 123 100 90
10.85753441 40.73401642 149.13197327 115 96 85
10.85786724 40.73123550 149.07171631 115 94 86
10.85812378 40.72881317 149.01141357 119 98 82
10.85798454 40.72823334 148.95095825 122 103 86
10.85784531 40.72765350 148.89047241 128 105 91
10.85752392 40.72792816 148.82989502 128 111 91
10.85746193 40.72698975 148.76939392 137 116 97
10.85712624 40.72732925 148.70875549 135 116 101
10.85677719 40.72773743 148.64807129 139 120 105
10.85648918 40.72784805 148.58740234 141 122 107
10.85592842 40.72924423 148.52656555 139 120 103
10.85577965 40.72871399 148.46589661 137 122 103
10.85526562 40.72988510 148.40502930 138 121 105
10.85480118 40.73082733 148.34413147 136 117 103
10.85454845 40.73078918 148.28330994 136 118 104
10.85418892 40.73123169 148.22241211 133 115 103
10.85392570 40.73123550 148.16151428 132 116 101
10.85338688 40.73252869 148.10044861 130 117 101
10.85276031 40.73422623 148.03927612 134 116 104
10.85202503 40.73642731 147.97801208 133 114 100
10.85124683 40.73883438 147.91665649 125 108 100
10.85112667 40.73817444 147.85566711 121 104 94
10.85112762 40.73694611 147.79469299 120 104 91
10.85068989 40.73776245 147.73342896 121 102 98
10.85034561 40.73814392 147.67218018 120 99 94
10.85010815 40.73802948 147.61096191 114 100 91
10.85007095 40.73698425 147.54981995 117 97 98
10.84985161 40.73678589 147.48854065 119 100 96
10.84964943 40.73650360 147.42721558 115 100 95
10.84919167 40.73741150 147.36567688 122 98 96
10.84867477 40.73860168 147.30404663 115 100 93
10.93435669 40.71640396 151.29948425 90 57 62
10.93431282 40.71532822 151.23939514 91 62 61
10.93395233 40.71575165 151.17933655 89 62 66
10.93363762 40.71596527 151.11926270 95 65 65
10.93327904 40.71638489 151.05920410 99 68 65
10.93292046 40.71680450 150.99914551 101 66 62
10.93266869 40.71672058 150.93908691 94 69 64
10.93237114 40.71685791 150.87902832 96 68 64
10.93207359 40.71699142 150.81895447 97 67 57
10.93176270 40.71718597 150.75889587 102 70 59
10.93137455 40.71775055 150.69882202 106 68 65
10.93106270 40.71795273 150.63874817 103 75 71
10.93060303 40.71886444 150.57865906 107 78 69
10.93014145 40.71977234 150.51855469 111 82 75
10.92950058 40.72153473 150.45843506 111 87 76
10.92899323 40.72266769 150.39830017 110 86 77
10.92885208 40.72206879 150.33821106 109 78 78
10.92892075 40.72047424 150.27813721 107 82 73
10.92884064 40.71959305 150.21804810 113 87 81
10.92866993 40.71913910 150.15792847 116 93 86
10.92840958 40.71910477 150.09779358 123 95 89
10.92841911 40.71779633 150.03770447 116 95 86
10.92837048 40.71675873 149.97758484 114 96 85
10.92812538 40.71665573 149.91743469 117 98 86
10.92807865 40.71561813 149.85729980 119 98 88
10.92770004 40.71615219 149.79708862 120 100 88
10.92744064 40.71611404 149.73689270 113 94 82
10.92734718 40.71529388 149.67672729 117 93 81
10.92697144 40.71581268 149.61647034 123 98 88
10.92645645 40.71698761 149.55615234 117 98 87
10.92609692 40.71743774 149.49586487 119 99 85
10.92559719 40.71853638 149.43551636 122 95 83
10.92535877 40.71840668 149.37521362 117 101 84
10.92483330 40.71963501 149.31481934 121 102 88
10.92420197 40.72136307 149.25434875 123 104 89
10.92360210 40.72294617 149.19386292 124 102 88
10.92318344 40.72366714 149.13342285 116 96 83
10.92346096 40.72110367 149.07319641 115 92 87
10.92361832 40.71910858 149.01292419 114 94 84
10.92353439 40.71824646 148.95252991 113 96 81
10.92336082 40.71781158 148.89210510 117 100 90
10.92324829 40.71709442 148.83166504 127 103 91
10.92292595 40.71736908 148.77111816 128 110 96
10.92280006 40.71671295 148.71063232 131 111 100
10.92240334 40.71733856 148.64999390 136 118 104
10.92193222 40.71831512 148.58929443 137 119 105
10.92153740 40.71892548 148.52859497 139 117 103
10.92120647 40.71924591 148.46789551 136 117 102
10.92085648 40.71964264 148.40715027 137 122 103
10.92048168 40.72016144 148.34637451 137 119 105
10.92007637 40.72082901 148.28553772 134 118 103
10.91982079 40.72078323 148.22474670 133 116 100
10.91941929 40.72143555 148.16383362 128 116 102
10.91901493 40.72209167 148.10289001 131 118 102
10.91857147 40.72294617 148.04188538 134 116 102
10.91750717 40.72671509 147.98048401 132 114 100
10.91703415 40.72770309 147.91937256 127 107 98
10.91675758 40.72776031 147.85833740 124 107 91
10.91651154 40.72766876 147.79728699 121 107 96
10.91619205 40.72792816 147.73616028 121 103 99
10.91589069 40.72810745 147.67498779 116 102 91
10.91558933 40.72827911 147.61378479 116 99 91
10.91566658 40.72666931 147.55279541 113 99 96
10.91546059 40.72639847 147.49157715 113 100 92
10.91519165 40.72641373 147.43026733 115 100 95
10.91465855 40.72768402 147.36872864 117 102 97
10.91440964 40.72761154 147.30735779 117 102 97
10.91416359 40.72752380 147.24592590 115 100 95
10.99597168 40.70754242 151.29885864 87 56 61
10.99581814 40.70696640 151.23884583 88 56 59
10.99551868 40.70709229 151.17881775 90 60 60
10.99541092 40.70630646 151.11880493 94 63 58
10.99499130 40.70700836 151.05880737 94 63 61
10.99448204 40.70814514 150.99879456 98 64 65
10.99432945 40.70757294 150.93878174 96 65 63
10.99401474 40.70777130 150.87876892 92 68 60
10.99378967 40.70755005 150.81877136 97 69 58
10.99355125 40.70738983 150.75875854 102 69 62
10.99304390 40.70851898 150.69873047 103 73 65
10.99274635 40.70864868 150.63871765 102 74 70
10.99229813 40.70949554 150.57867432 103 75 71
10.99177742 40.71069336 150.51863098 107 83 65
10.99115181 40.71238708 150.45855713 110 85 73
10.99055672 40.71394348 150.39846802 110 87 79
10.99051476 40.71284485 150.33843994 109 81 77
10.99059200 40.71118164 150.27842712 113 84 80
10.99043274 40.71064758 150.21836853 111 87 82
10.99034882 40.70976639 150.15832520 114 92 85
10.99008179 40.70974350 150.09825134 117 96 90
10.99001312 40.70878601 150.03819275 115 93 87
10.98994446 40.70782089 149.97813416 112 93 83
10.98983192 40.70707321 149.91804504 118 96 87
10.98965836 40.70661163 149.85795593 119 96 90
10.98933601 40.70686340 149.79780579 116 98 87
10.98910332 40.70668793 149.73767090 114 96 84
10.98893356 40.70621490 149.67753601 118 93 85
10.98858261 40.70661163 149.61734009 119 97 85
10.98820400 40.70713806 149.55711365 116 98 86
10.98767662 40.70837402 149.49684143 114 95 83
10.98729706 40.70890427 149.43656921 116 97 87
10.98701096 40.70899200 149.37631226 115 98 85
10.98648453 40.71022797 149.31596375 120 99 86
10.98595905 40.71145630 149.25558472 124 103 87
10.98527145 40.71346283 149.19512939 121 101 90
10.98495483 40.71369171 149.13478088 115 99 87
10.98511887 40.71162415 149.07456970 110 90 82
10.98526859 40.70963287 149.01434326 111 92 83
10.98522377 40.70856476 148.95404053 114 95 81
10.98503113 40.70820618 148.89364624 122 100 87
10.98480797 40.70799255 148.83322144 125 101 91
10.98457336 40.70783234 148.77276611 127 105 91
10.98439693 40.70740128 148.71231079 129 112 96
10.98398399 40.70809555 148.65171814 130 112 102
10.98361683 40.70857239 148.59112549 135 116 102
10.98308563 40.70983124 148.53041077 137 116 99
10.98286915 40.70959091 148.46983337 134 115 98
10.98246002 40.71026611 148.40911865 130 117 100
10.98214245 40.71051025 148.34840393 127 109 97
10.98173428 40.71118164 148.28762817 133 111 100
10.98137283 40.71163940 148.22683716 131 113 99
10.98117447 40.71130371 148.16609192 130 110 99
10.98069763 40.71230698 148.10516357 132 114 102
10.98004246 40.71416473 148.04409790 134 116 102
10.97928238 40.71651459 147.98292542 131 113 103
10.97865868 40.71821976 147.92178345 125 108 98
10.97840881 40.71814346 147.86082458 121 107 96
10.97827721 40.71748734 147.79989624 122 105 98
10.97789764 40.71802902 147.73878479 119 105 96
10.97756195 40.71835709 147.67765808 118 106 92
10.97728825 40.71839142 147.61651611 117 100 93
10.97717857 40.71763992 147.55546570 113 99 90
10.97700882 40.71717072 147.49432373 111 102 93
10.97677040 40.71704102 147.43309021 115 101 92
10.97629547 40.71803284 147.37165833 116 103 94
10.97604179 40.71797180 147.31033325 119 98 95
10.97595787 40.71710968 147.24908447 117 99 97
11.06442642 40.69725800 151.29817200 93 53 54
11.06422615 40.69689178 151.23820496 85 55 55
11.06405354 40.69638062 151.17825317 88 60 59
11.06377983 40.69638062 151.11830139 92 61 56
11.06338882 40.69694519 151.05834961 90 62 59
11.06302738 40.69736481 150.99839783 92 61 59
11.06273937 40.69742584 150.93844604 91 63 62
11.06255531 40.69697952 150.87849426 90 68 54
11.06225395 40.69711304 150.81854248 94 65 59
11.06181908 40.69789124 150.75859070 91 70 65
11.06153488 40.69794464 150.69863892 93 75 65
11.06118870 40.69828796 150.63867188 107 76 72
11.06080246 40.69883728 150.57870483 108 81 71
11.06034088 40.69975281 150.51870728 112 82 74
11.05970001 40.70153046 150.45869446 111 81 78
11.05901814 40.70351410 150.39866638 106 86 78
11.05901527 40.70220184 150.33869934 104 75 70
11.05902672 40.70082474 150.27873230 110 80 77
11.05895042 40.69986725 150.21876526 113 89 82
11.05877113 40.69941711 150.15875244 113 89 82
11.05856323 40.69910431 150.09875488 112 89 87
11.05844307 40.69836044 150.03874207 112 92 84
11.05836964 40.69739532 149.97874451 112 92 77
11.05832481 40.69629669 149.91873169 118 93 88
11.05799961 40.69655609 149.85867310 118 94 82
11.05769157 40.69673157 149.79858398 118 95 89
11.05754375 40.69612885 149.73852539 118 93 85
11.05726433 40.69616318 149.67842102 118 93 86
11.05692673 40.69647980 149.61828613 119 97 85
11.05660534 40.69672775 149.55815125 116 98 85
11.05607796 40.69797134 149.49792480 116 98 87
11.05569553 40.69850159 149.43771362 116 96 89
11.05524540 40.69937134 149.37747192 120 97 86
11.05488110 40.69982910 149.31723022 118 99 89
11.05431271 40.70127106 149.25689697 123 102 87
11.05375671 40.70264435 149.19654846 117 98 87
11.05342484 40.70294189 149.13624573 116 97 88
11.05354977 40.70102692 149.07608032 110 91 78
11.05377865 40.69860840 149.01596069 113 94 80
11.05366898 40.69783020 148.95568848 119 96 79
11.05350113 40.69733047 148.89535522 121 99 86
11.05321693 40.69740295 148.83497620 125 103 92
11.05303478 40.69697189 148.77459717 128 107 90
11.05276680 40.69696045 148.71417236 127 110 90
11.05244064 40.69723511 148.65368652 125 117 96
11.05212879 40.69743347 148.59317017 133 116 100
11.05152512 40.69905090 148.53248596 129 118 98
11.05127430 40.69895172 148.47193909 131 116 97
11.05098057 40.69906616 148.41134644 130 114 98
11.05062866 40.69946289 148.35069275 130 112 98
11.05013180 40.70055771 148.28993225 130 110 101
11.05000114 40.69988251 148.22932434 127 109 99
