# .PCD v0.7 - Point Cloud Data file format
VERSION 0.7
FIELDS x y z
SIZE 4 4 4
TYPE F F F
COUNT 1 1 1
WIDTH 1514
HEIGHT 1
VIEWPOINT 0 0 0 1 0 0 0
POINTS 1514
DATA ascii
-0.0061150002 0.2057 0.78179997
0.61760002 -0.01671 0.18350001
0.08134 0.032749999 -0.34279999
-0.0056039998 0.07243 0.73909998
-0.51740003 -0.03059 0.1207
-0.091640003 0.01196 0.74440002
-0.26679999 -0.067330003 -0.092469998
-0.088380001 -0.03393 -0.77380002
-0.02698 -0.1125 0.1849
-0.7263 -0.00019799999 0.2163
-0.01145 -0.117 -0.2309
-0.1235 -0.051729999 -0.12980001
-0.006122 -0.117 -0.1083
0.30250001 -0.055879999 -0.3064
-0.02211 -0.117 -0.29480001
0.02586 -0.117 -0.15090001
0.47330001 -0.04208 -0.017859999
-0.31020001 -0.07519 -0.28960001
-0.0043609999 0.259 0.82959998
0.1217 -0.08664 -0.1829
-0.01001 0.1311 0.6911
-0.008525 0.1524 0.72299999
-0.043430001 -0.117 -0.16159999
0.036520001 -0.117 -0.044330001
-0.006122 -0.117 0.03029
-0.01145 -0.117 -0.017680001
-0.25470001 -0.1088 -0.2219
-0.01145 -0.117 0.0089729996
-0.095389999 -0.050170001 0.04095
-0.0381 -0.117 -0.32679999
0.009722 0.076499999 0.23280001
0.1591 -0.077780001 -0.055160001
0.056930002 0.040150002 0.61250001
-0.0060140002 0.076700002 -0.4707
-0.00075499999 0.076930001 -0.60390002
0.095389999 -0.050179999 -0.065640002
0.074699998 -0.078039996 0.39739999
-0.75830001 0.0050550001 0.2217
0.35080001 -0.053569999 0.003541
0.0079800002 0.1577 0.73369998
0.0044430001 0.076810002 -0.038989998
-0.1551 -0.051139999 -0.26390001
0.094839998 -0.040139999 0.1054
-0.2235 -0.072930001 -0.2033
0.17560001 -0.042789999 -0.1354
-0.71560001 0.0051469998 0.1683
0.037420001 -0.1162 -0.78119999
-0.145 0.01316 0.88099998
-0.21960001 -0.057640001 0.01936
0.057840001 -0.117 -0.1829
-0.70499998 -0.00063999998 0.19490001
0.86769998 0.01148 0.2432
0.096589997 -0.093560003 -0.1883
0.0143 0.05923 0.69080001
-0.064630002 -0.1169 -0.1136
0.068180002 -0.1167 -0.049660001
0.1215 -0.079570003 0.024870001
-0.0087580001 0.077809997 0.69099998
0.08941 -0.056510001 -0.66259998
0.0044010002 -0.1165 0.1529
-0.0058220001 -0.1164 0.2701
0.092759997 0.0075949999 -0.4228
-0.053909998 0.01536 0.66710001
-0.00077599997 0.21179999 0.86019999
0.00032299999 0.1725 0.6498
-0.0064599998 0.1776 0.68300003
-0.096409999 -0.028829999 -0.56660002
0.04448 -0.099869996 -0.78530002
-0.095409997 -0.0025589999 0.062279999
0.154 -0.051830001 -0.092459999
-0.075719997 0.01131 0.72839999
-0.094339997 0.0023680001 -0.43869999
-0.155 -0.083930001 -0.2044
0.01488 -0.1042 0.44580001
0.47870001 -0.019950001 -0.054559998
-0.257 -0.1149 -0.33250001
-0.37889999 -0.052850001 -0.039129999
-0.1552 -0.080810003 -0.1243
-0.024809999 0.073169999 -0.35350001
-0.096239999 -0.0288 -0.70520002
-0.09381 -0.043850001 0.2168
-0.4323 -0.043129999 0.046190001
-0.4822 -0.039110001 -0.040879998
0.33849999 -0.1401 -0.2482
0.1596 -0.05376 -0.071450002
-0.2511 0.02121 0.85100001
-0.39019999 -0.03627 0.051309999
0.1217 -0.055830002 -0.09815
-0.28259999 -0.1538 -0.35350001
0.57529998 -0.0049840002 0.06718
0.019649999 0.074079998 0.4887
-0.51749998 -0.03613 0.01409
0.1029 -0.05023 -0.1618
0.0088839997 0.02981 0.87260002
0.01973 0.07525 0.072939999
-0.000535 0.1671 0.84570003
0.072530001 0.0451 -0.29840001
0.2482 -0.083439998 -0.28439999
0.081459999 0.032869998 -0.66790003
0.44690001 -0.01356 -0.02296
-0.04047 0.068039998 0.2115
0.27469999 -0.1229 -0.183
0.08766 -0.054590002 -0.7317
-0.064730003 -0.092289999 -0.59509999
-0.2255 -0.039019998 -0.109
-0.27160001 -0.15270001 -0.37180001
0.36090001 -0.029580001 -0.020850001
-0.052579999 -0.1013 -0.53469998
0.29440001 -0.074900001 -0.076509997
-0.2036 -0.07762 -0.1771
-0.03678 0.069650002 -0.25170001
0.24600001 -0.1193 -0.3734
-0.28639999 -0.1681 -0.27169999
0.51709998 -0.01254 0.050799999
0.2494 -0.1424 -0.26719999
0.03026 -0.1115 -0.56129998
0.03026 -0.1115 0.2861
-0.24600001 -0.065990001 -0.0070230002
-0.69370002 -0.01269 0.12620001
0.1751 0.0141 0.85110003
-0.25639999 -0.069370002 -0.1137
-0.089029998 0.017890001 -0.3321
-0.2534 -0.1504 -0.35820001
0.0229 0.072800003 -0.72000003
0.01438 -0.063210003 0.64780003
0.1964 -0.076439999 -0.1349
-0.2027 -0.062210001 0.035969999
-0.1557 -0.052480001 -0.087279998
0.33500001 -0.1233 -0.3215
-0.2744 -0.1453 -0.2361
-0.67879999 0.0040899999 0.13060001
-0.85860002 0.018999999 0.1982
0.067319997 -0.04501 0.5679
-0.03286 0.071070001 -0.15019999
0.0845 0.025979999 0.39579999
-0.09691 -0.018209999 0.12620001
-0.34349999 -0.1485 -0.2879
-0.05043 -0.093359999 0.4312
-0.00083400001 0.27900001 0.7511
-0.02531 0.00045799999 0.84119999
-0.2992 -0.0766 -0.35350001
0.095469996 -0.036600001 -0.19840001
0.63880002 -0.017759999 0.12620001
0.089170001 -0.056729998 0.3346
0.068180002 -0.1167 -0.14560001
0.001891 0.18440001 0.83490002
0.6329 -0.018650001 0.052839998
0.0197 0.074940003 0.4569
-0.2305 0.02547 0.84030002
0.041820001 -0.0012009999 0.77649999
0.02269 0.029379999 0.80250001
0.05266 0.0070540002 0.75510001
0.03342 -0.09369 -0.85939997
-0.047370002 0.064230002 -0.2096
-0.67619997 -0.007975 0.207
-0.53869998 -0.030440001 0.07807
-0.01208 0.067890003 0.65899998
0.36680001 -0.053959999 -0.039080001
0.14139999 -0.1901 -0.056000002
0.3364 -0.1033 -0.2362
-0.091839999 0.01039 -0.36899999
-0.024809999 0.073169999 -0.4014
-0.075719997 0.04112 0.33989999
-0.00075499999 0.076930001 -0.55599999
0.17560001 -0.04882 -0.092820004
-0.7001 0.0047399998 0.1523
-0.070009999 -0.087439999 -0.55779999
-0.32859999 -0.069229998 -0.26800001
0.1062 0.0080540003 0.85659999
0.062770002 0.001851 0.8082
0.35100001 -0.02444 -0.093819998
0.17470001 0.01242 0.80299997
-0.057100002 0.05892 -0.55019999
-0.054159999 0.06058 0.36070001
-0.25130001 -0.071039997 -0.14030001
0.095650002 -0.032930002 0.33450001
-0.021269999 0.074869998 0.1049
0.02242 -0.1141 -0.4276
-0.094339997 0.0023680001 -0.5826
0.095650002 -0.036490001 0.073320001
0.31119999 -0.077969998 -0.31459999
0.080229998 -0.1142 0.072930001
-0.17739999 -0.17460001 0.0348
-0.025389999 0.073349997 0.28119999
-0.01047 0.02444 0.86690003
-0.44319999 -0.01818 -0.052820001
0.066529997 -0.09082 0.2599
-0.066019997 0.051830001 -0.1776
0.33219999 -0.097039998 -0.3003
0.063790001 -0.093029998 -0.50220001
-0.33660001 -0.1233 -0.3303
-0.065669999 0.051449999 0.37670001
-0.036830001 0.069629997 0.1955
-0.03971 -0.0037420001 0.75340003
-0.25619999 -0.1089 -0.26820001
-0.072180003 -0.086149998 0.1583
0.0099550001 -0.050590001 -0.9885
-0.1929 0.022329999 0.80299997
-0.1451 -0.19 -0.05889
0.041390002 -0.107 -0.55019999
0.063330002 0.025250001 -0.83130002
-0.294 -0.1697 -0.36790001
-0.3242 -0.056159999 0.01042
0.329 -0.094379999 -0.36219999
-0.045120001 -0.061900001 0.59100002
0.2868 -0.07474 -0.37180001
-0.089029998 0.017890001 0.13160001
0.35089999 -0.13150001 -0.3215
-0.15880001 -0.1301 -0.009699
-0.294 -0.063060001 -0.3689
-0.2245 -0.041000001 -0.20909999
-0.037160002 -0.088780001 0.48899999
0.02238 -0.1141 -0.39570001
0.40529999 -0.040709998 0.093900003
-0.84609997 0.0078170002 0.221
-0.34819999 -0.090489998 -0.34259999
0.22400001 -0.035110001 -0.13519999
0.29730001 -0.12639999 -0.35249999
0.2121 -0.068889998 0.019540001
0.48469999 -0.034010001 0.1161
0.037980001 -0.1086 0.35589999
0.01973 0.07525 -0.49200001
-0.30829999 -0.04967 -0.25749999
0.042020001 0.002904 0.84719998
0.05088 -0.1127 -0.35780001
0.1267 0.0073079998 0.787
0.3132 -0.1652 -0.26840001
-0.090790004 -0.05122 -0.71210003
0.0044220001 0.076480001 -0.25220001
-0.1339 0.01007 0.84570003
0.72420001 0.002017 0.2007
0.27739999 -0.076760001 -0.2843
0.3249 -0.042750001 0.01904
0.088119999 0.002382 0.7446
-0.78310001 0.0088759996 0.141
0.019640001 0.074929997 0.32339999
0.31900001 -0.02605 -0.108
-0.02878 0.056650002 0.66399997
0.1062 0.01523 0.7177
-0.31020001 -0.025730001 -0.097759999
-0.095389999 -0.097659998 -0.097620003
0.01456 -0.1155 0.24879999
-0.00071200001 -0.1166 0.32339999
-0.1464 -0.18269999 -0.027279999
-0.090609998 0.01396 -0.65679997
-0.1846 0.01341 0.76840001
0.0022809999 0.32300001 0.8775
0.1061 -0.051589999 -0.14569999
0.191 -0.068170004 0.066940002
0.054620001 0.01207 -0.8854
0.095459998 -0.040369999 -0.097180001
-0.02854 0.07192 -0.3748
0.01456 -0.1155 -0.55599999
-0.1418 -0.1648 0.01436
0.2969 0.03073 0.84719998
0.096220002 -0.0087400004 -0.3326
-0.33989999 -0.1135 -0.2202
-0.038989998 -0.1082 -0.43520001
-0.038989998 -0.1082 0.29499999
0.3274 -0.061650001 -0.114
0.34799999 -0.099380001 -0.3583
0.02836 0.072690003 0.1991
0.25729999 -0.053320002 -0.215
-0.2703 -0.084890001 -0.31459999
0.042950001 -0.0036480001 0.74430001
0.31299999 -0.171 -0.3109
-0.02131 0.07485 -0.24690001
0.0049800002 0.1644 0.77960002
0.132 -0.1602 -0.076629996
0.34979999 -0.1194 -0.36379999
-0.081090003 -0.073260002 0.26660001
-0.27180001 -0.1234 -0.1997
0.71869999 0.0079420004 0.1156
0.19059999 -0.049419999 -0.2455
-0.052579999 -0.1013 -0.4068
-0.043979999 0.066299997 -0.4014
0.030379999 -0.048629999 0.67430001
0.3994 -0.02029 -0.02874
-0.3267 -0.1409 -0.2217
0.50459999 -0.01936 -0.042259999
-0.076640002 0.033989999 0.4673
0.097390004 -0.086730003 -0.0042739999
0.0392 0.068609998 -0.29660001
0.1652 -0.08219 -0.193
0.66649997 -0.003549 0.16320001
-0.018169999 -0.092160001 -0.88819999
0.096450001 -0.0284 -0.27880001
0.0038920001 0.2057 0.81370002
0.7676 -0.0024339999 0.1452
-0.083860002 0.02868 0.051619999
0.057840001 -0.117 0.0089729996
-0.27900001 -0.069310002 -0.14560001
-0.096409999 -0.028829999 -0.1083
-0.0073279999 0.1578 0.74419999
-0.65509999 -0.0089969998 0.18619999
-0.025490001 0.07367 -0.049210001
-0.007007 0.099459998 0.72719997
-0.0028280001 0.1737 0.81889999
-0.0035349999 0.099129997 0.7816
0.064989999 -0.03272 0.59969997
0.08495 0.02648 -0.4032
-0.2401 -0.1185 -0.3048
0.095389999 -0.092830002 0.062270001
0.082889996 0.029859999 -0.26109999
-0.00076600001 0.077040002 0.43540001
0.086180001 0.022530001 0.3021
0.093670003 -0.044270001 -0.6146
0.066270001 -0.090609998 -0.59820002
-0.09691 -0.018209999 -0.54000002
-0.06171 -0.094700001 0.23459999
0.003122 0.1417 0.80299997
0.096950002 -0.018340001 -0.43340001
0.095590003 -0.036630001 0.36649999
-0.064719997 -0.092289999 0.36430001
-0.064730003 -0.092289999 -0.4725
-0.078199998 -0.1149 -0.2877
-0.01145 -0.117 -0.14560001
-0.074620001 -0.081900001 0.32699999
0.066289999 -0.09059 -0.46489999
-0.075719997 0.04112 -0.53420001
0.0087940004 0.093759999 0.69639999
-0.20630001 -0.050760001 -0.047320001
-0.073289998 0.04414 -0.48629999
-0.04047 0.068039998 0.3554
0.53189999 -0.031500001 0.067460001
-0.035470001 -0.1096 -0.4689
0.06171 -0.05438 -0.86949998
-0.025490001 0.07367 -0.086520001
-0.02744 -0.117 -0.092289999
0.052510001 -0.117 -0.2202
0.052510001 -0.117 -0.023010001
-0.19760001 -0.073540002 -0.060430001
-0.01678 -0.117 -0.060320001
-0.37900001 -0.047669999 0.067479998
0.4253 -0.04733 -0.0285
0.16339999 -0.1779 0.044319998
-0.002847 0.067149997 0.7816
0.061889999 -0.086450003 -0.7899
0.09234 -0.0077689998 -0.74229997
0.31330001 -0.05751 0.003482
-0.075819999 0.0078710001 -0.81099999
0.26010001 -0.06408 -0.001783
-0.075999998 0.036230002 -0.73150003
-0.294 -0.04947 -0.2095
-0.54949999 -0.02643 0.13680001
-0.0057680001 0.093740001 0.74449998
0.61729997 -0.02235 0.083509997
0.26910001 -0.1626 -0.2726
0.0069300001 0.077809997 0.71759999
0.0392 0.068609998 -0.25929999
0.053089999 0.061590001 -0.13850001
0.34720001 -0.1092 -0.2476
0.08495 0.02648 -0.2913
0.073459998 -0.082249999 -0.53469998
0.048360001 0.062059999 0.4921
-0.01012 -0.1151 -0.72570002
-0.28470001 -0.044829998 -0.0085509997
-0.096840002 -0.023530001 -0.15090001
0.0583 -0.078369997 -0.84259999
-0.108 -0.05432 -0.1248
0.1812 -0.076750003 -0.1027
-0.1018 0.0057069999 0.81370002
-0.089769997 -0.044369999 0.4138
-0.2291 0.024560001 0.87900001
0.080770001 -0.073739998 0.32339999
-0.032170001 0.070639998 0.49399999
0.29750001 -0.17380001 -0.3215
0.2987 -0.030400001 -0.082050003
-0.167 -0.16869999 0.0026229999
-0.04016 0.06752 -0.1292
-0.08698 0.0092940005 0.83459997
-0.51779997 -0.01037 -0.001298
0.0072829998 0.13060001 0.6437
0.049789999 0.0634 0.044509999
0.08241 -0.07017 0.23819999
0.093029998 -0.04408 0.22220001
0.51090002 -0.008618 0.0091399997
-0.025389999 0.073349997 0.37180001
-0.095550001 -0.039500002 -0.14030001
-0.01145 -0.117 -0.2095
-0.00079399999 0.077260002 0.30739999
0.039179999 0.068609998 -0.62699997
0.25529999 0.02705 0.89899999
-0.16329999 -0.082620002 -0.22830001
0.046239998 0.065169998 0.1742
-0.25729999 -0.1221 -0.3161
-0.036680002 0.069140002 0.40869999
-0.2251 -0.03672 -0.1247
-0.079980001 0.035599999 0.2701
-0.1708 -0.07265 0.062120002
0.071379997 -0.0854 -0.66790003
0.083609998 -0.066660002 0.1955
0.096299998 -0.028209999 -0.070950001
-0.043979999 0.066299997 -0.2255
-0.079570003 0.0352 0.39789999
0.063019998 -0.1169 0.04095
0.047180001 -0.117 -0.1989
-0.1016 0.01351 0.69400001
0.83530003 0.0059930002 0.19059999
-0.1401 -0.043960001 -0.1675
0.35409999 -0.050719999 0.054299999
0.0063280002 -0.0020039999 -0.96109998
-0.30450001 -0.05046 -0.29679999
-0.4181 -0.033489998 0.066090003
-0.085620001 0.02513 0.37670001
0.7985 0.0042590001 0.23270001
0.064029999 0.0072989999 -0.85960001
-0.2746 -0.061069999 0.033599999
-0.34760001 -0.030889999 -0.02864
0.3671 -0.055709999 -0.076229997
0.0043939999 0.052310001 -0.85320002
-0.3238 -0.084190004 -0.30559999
-0.05796 -0.068089999 0.52109998
0.045929998 0.064580001 -0.67860001
-0.30610001 -0.1231 -0.35030001
0.02853 -0.002783 0.80589998
-0.1664 -0.042180002 -0.1513
0.2489 -0.068439998 -0.1929
0.31549999 -0.070430003 -0.223
0.030370001 0.059870001 -0.79009998
0.066859998 -0.1127 -0.3418
-0.14650001 -0.18279999 0.02049
-0.043979999 0.066299997 -0.01235
-0.6401 -0.0085159997 0.1691
-0.040089998 0.067000002 0.46200001
-0.59030002 -0.0021889999 0.069590002
-0.01171 -0.031459998 -0.99269998
-0.64039999 -0.01808 0.1209
0.095849998 -0.0050619999 -0.1052
0.096950002 -0.01833 -0.49200001
0.057349999 -0.091810003 0.40810001
0.086669996 0.02266 -0.60399997
0.3204 -0.066 -0.26010001
0.074529998 0.036660001 0.4707
-0.095030002 -0.039000001 0.34470001
-0.33360001 -0.044500001 0.03867
-0.37920001 -0.020679999 -0.070639998
0.032079998 0.071429998 0.05339
-0.071029998 0.046920002 -0.46540001
0.01205 0.087990001 0.62760001
0.15989999 0.01372 0.87300003
0.90509999 0.01473 0.23819999
0.2173 -0.047400001 -0.23010001
-0.917 0.01633 0.2437
-0.056949999 0.05883 -0.60399997
-0.06735 0.04338 0.52609998
-0.055100001 0.052310001 0.57340002
0.052510001 -0.117 -0.26280001
-0.37290001 -0.03528 -0.1346
-0.081299998 -0.073409997 0.14910001
-0.2199 -0.042470001 -0.092759997
-0.083860002 0.02867 -0.54530001
0.095389999 -0.044840001 -0.001685
0.046209998 -0.003695 0.72850001
0.073739998 -0.082450002 -0.49200001
-0.24600001 -0.035239998 -0.16689999
0.043200001 0.025590001 -0.88459998
-0.20100001 -0.05562 -0.01529
-0.00075499999 0.076930001 -0.43869999
-0.00079100003 0.077260002 0.0089739999
-0.2773 -0.086379997 -0.33610001
0.05669 -0.02348 -0.90219998
-0.03162 0.059939999 0.63230002
-0.073289998 0.04414 -0.69410002
0.0148 0.076140001 -0.054979999
0.1304 -0.1717 -0.023259999
-0.3044 -0.083570004 -0.1637
-0.40529999 -0.02863 -0.107
0.055860002 0.059349999 0.019640001
-0.2402 -0.1143 -0.3378
-0.45179999 -0.01897 0.016419999
-0.00081599999 0.076930001 -0.2202
-0.33199999 -0.0381 -0.002379
-0.0086030001 0.13590001 0.65439999
-0.047230002 0.063929997 0.33939999
-0.00063199998 -0.088239998 0.54000002
-0.080159999 -0.066770002 -0.76010001
-0.1268 -0.1077 -0.0198
-0.08433 0.024049999 0.41440001
-0.23559999 0.027170001 0.81900001
-0.6081 -0.0206 0.1314
0.06837 0.046119999 -0.72750002
0.035659999 -0.108 0.39250001
0.17569999 -0.17129999 -0.018780001
0.071369998 -0.085419998 0.29159999
-0.05886 -0.096979998 -0.6164
0.004917 0.1953 0.78659999
-0.037009999 -0.032439999 0.7112
-0.0058019999 0.30160001 0.82440001
-0.022260001 0.051229998 0.72549999
0.6074 -0.0058280001 0.1097
-0.62459999 0.001283 0.07824
0.089769997 -0.1087 -0.017680001
-0.065909997 0.0517 -0.35879999
-0.065530002 0.05178 0.31279999
-0.21080001 0.018519999 0.8761
-0.0099470001 0.054129999 0.74409997
0.27779999 0.030139999 0.85689998
0.005173 0.102 0.602
0.083039999 0.02994 -0.15979999
0.02836 0.072690003 0.017859999
0.1012 0.01319 0.73909998
0.095380001 -0.092900001 -0.30019999
-0.052579999 -0.1013 -0.46000001
0.54839998 -0.0049720001 0.035659999
-0.29139999 -0.082730003 -0.2017
-0.71439999 -0.01024 0.1159
0.2405 -0.109 -0.3585
-0.30320001 -0.071400002 -0.26300001
0.4691 -0.01375 0.003389
0.033 -0.09747 0.45370001
-0.3044 -0.072920002 -0.1211
0.099930003 -0.08523 -0.039080001
-0.1559 -0.04831 -0.1194
-0.68290001 -0.01214 0.15279999
-0.4808 -0.01103 -0.00174
0.79339999 0.015869999 0.1693
0.43130001 -0.044599999 0.01434
0.3407 -0.055369999 -0.01234
0.06639 -0.090729997 -0.69959998
-0.03675 0.06067 -0.77420002
0.090769999 -0.052949999 -0.59859997
0.248 -0.1485 -0.29840001
0.02816 0.072049998 -0.46720001
-0.2947 -0.1076 -0.35260001
0.21789999 0.02306 0.8883
0.05328 -0.003734 0.70160002
0.004857 0.36000001 0.85070002
-0.1172 0.01359 0.8096
0.076729998 -0.1153 -0.081629999
-0.48629999 -0.03974 0.002939
0.062880002 0.040509999 -0.78570002
-0.02279 -0.1772 -0.82169998
0.29660001 -0.1006 -0.1575
0.0056779999 0.2431 0.79220003
0.02836 0.072690003 0.2843
0.067620002 0.050129998 0.3838
0.61250001 -0.019160001 0.1476
-0.004654 0.1204 0.77100003
0.60149997 -0.001171 0.057539999
-0.081919998 0.032400001 0.24349999
0.076729998 -0.1153 -0.1829
-0.4391 -0.01792 -0.0028520001
0.088579997 0.019029999 -0.21359999
0.01973 0.075139999 0.414
-0.16500001 -0.18179999 -0.02746
-0.01199 0.04507 0.80309999
-0.62029999 -0.00059000001 0.0933
0.01973 0.07525 0.13160001
-0.043310001 0.02978 0.69800001
0.36210001 -0.020850001 -0.065970004
-0.70160002 -0.0084739998 0.091650002
0.07401 -0.08264 -0.4068
-0.28240001 0.029920001 0.90560001
-0.91350001 0.02014 0.30000001
0.02558 -0.027659999 0.76230001
-0.073289998 0.04414 -0.20909999
-0.89700001 0.02492 0.2378
0.01093 0.1205 0.66949999
-0.067460001 -0.089950003 -0.57550001
0.019710001 -0.1631 -0.80650002
0.20190001 0.023530001 0.80309999
0.092600003 0.0075429999 -0.32679999
-0.1613 -0.1017 -0.01928
-0.34310001 -0.08055 -0.30019999
0.30700001 -0.056430001 0.046379998
0.56389999 -0.02609 0.1101
0.068879999 -0.088129997 -0.3908
-0.074620001 -0.081900001 -0.46180001
-0.164 -0.07773 -0.25560001
0.92879999 0.023250001 0.26449999
-0.01629 0.072499998 0.57969999
0.089589998 0.0045560002 0.43200001
-0.28009999 0.03008 0.83359998
-0.079060003 -0.076329999 0.22570001
0.71359998 -0.0080000004 0.1692
-0.1644 -0.1647 -0.05156
0.004189 0.3285 0.85149997
0.264 -0.15800001 -0.37090001
0.074790001 0.042289998 -0.206
0.52649999 -0.031289998 0.083439998
0.3443 -0.109 -0.37349999
-0.3263 -0.1136 -0.2013
0.088430002 0.018959999 -0.4321
0.050999999 -0.1077 0.1304
-0.01141 -0.1137 -0.75849998
-0.33489999 -0.095250003 -0.25740001
0.1433 -0.1559 0.031330001
-0.3308 -0.03607 -0.15530001
0.1759 -0.17739999 0.03218
-0.01136 0.076509997 -0.1243
0.08004 -0.093050003 -0.35949999
-0.08439 -0.02839 0.4991
0.1268 -0.055580001 -0.28670001
0.049789999 0.0634 -0.056759998
0.2924 -0.1354 -0.33860001
0.50059998 -0.02021 0.083190002
0.56379998 -0.030309999 0.03537
0.30689999 -0.088540003 -0.1785
-0.73019999 0.007559 0.1644
0.3026 -0.058109999 -0.32139999
-0.0078720003 0.19509999 0.74959999
-0.54439998 -0.019649999 -0.022220001
-0.1728 -0.082010001 -0.2165
0.17730001 -0.1649 -0.04747
0.1117 0.01395 0.755
-0.44299999 -0.030339999 0.07841
-0.05635 -0.01251 0.6638
0.35409999 -0.0559 -0.052280001
-0.2077 -0.035409998 -0.15000001
-0.2085 -0.0414 -0.21439999
0.39289999 -0.034820002 0.04848
0.87279999 0.01056 0.21709999
0.49669999 -0.01337 0.032570001
-0.4005 -0.044610001 0.083580002
-0.021120001 -0.0071109999 0.82419997
-0.31889999 -0.1506 -0.36059999
-0.6724 0.0049470002 0.099990003
-0.1329 -0.061250001 -0.03782
-0.022050001 -0.1156 0.1101
-0.18799999 -0.049400002 -0.076920003
-0.048760001 -0.117 -0.2149
-0.059429999 -0.117 -0.24690001
0.1534 -0.084380001 -0.215
-0.077490002 -0.090060003 -0.3671
0.0045380001 -0.117 -0.2895
-0.2568 -0.13500001 -0.2344
-0.038059998 -0.1169 -0.3427
0.061650001 0.049970001 0.5223
0.132 -0.078850001 0.0088510001
-0.25929999 -0.034049999 -0.1002
-0.1453 -0.070840001 0.045639999
-0.045150001 -0.1138 -0.36050001
-0.096110001 -0.0076159998 -0.5133
-0.01176 0.00012899999 0.86379999
-0.043430001 -0.117 -0.01235
0.063539997 0.01063 0.68580002
0.39320001 -0.051970001 -0.05517
-0.040460002 0.058320001 0.60570002
-0.078879997 0.02386 0.50999999
0.001738 0.3224 0.79830003
-0.00027399999 0.20720001 0.6803
0.0094590001 0.14390001 0.6717
-0.078199998 -0.1149 -0.2131
0.2388 -0.06972 -0.081720002
0.4039 -0.047230002 0.019479999
-0.3098 -0.059530001 -0.0284
-0.082149997 0.032099999 -0.34279999
-0.071280003 -0.063050002 0.47409999
0.4355 -0.029750001 0.064439997
-0.00075499999 0.076930001 -0.38010001
0.092759997 0.0075960001 0.2861
0.38870001 -0.02063 -0.03943
0.51529998 -0.035640001 -0.01181
-0.4391 -0.03858 0.1136
0.43669999 -0.02582 0.040600002
-0.55489999 -0.0091639999 0.073100001
-0.095370002 -0.092900001 -0.31079999
-0.3184 -0.02953 -0.068800002
0.03119 -0.117 -0.1349
-0.1824 -0.058419999 -0.01276
0.09386 0.002173 0.71799999
0.056030001 0.059640002 -0.4657
0.1081 -0.069990002 -0.31560001
0.0097409999 0.076669998 0.1156
0.84729999 0.019819999 0.2164
-0.0098470002 -0.073140003 -0.94840002
0.003675 0.3549 0.87769997
-0.4224 -0.021290001 -0.002228
0.25889999 -0.1303 -0.23999999
0.1487 0.01702 0.7924
0.2182 -0.053320002 -0.01278
-0.8488 0.016070001 0.2538
0.30320001 -0.025869999 -0.103
-0.02744 -0.1166 0.088770002
-0.096110001 -0.0076159998 -0.3908
-0.09589 -0.034010001 0.1209
0.27599999 -0.06312 -0.02314
-0.19220001 -0.073100001 -0.02847
-0.2994 -0.15270001 -0.25749999
-0.2349 -0.072779998 -0.14040001
-0.01136 0.076509997 -0.065640002
-0.3897 -0.04837 0.03019
-0.09589 -0.034170002 -0.25220001
0.67640001 0.001274 0.142
0.078819998 0.02031 -0.7726
-0.26300001 0.02554 0.91860002
0.7719 0.01259 0.1479
-0.66759998 -0.0133 0.1574
-0.00825 0.221 0.73449999
-0.17640001 -0.07463 -0.017759999
0.14399999 -0.045699999 -0.15109999
-0.63739997 -0.001673 0.05542
0.077509999 -0.081890002 0.1432
0.08501 0.02636 -0.68599999
-0.9181 0.02612 0.25909999
0.83590001 0.0092810001 0.25409999
0.074759997 -0.036759999 0.55250001
-0.1767 -0.042240001 -0.2145
-0.01159 -0.1216 -0.8132
-0.068640001 0.049490001 -0.34279999
0.058959998 0.057039998 0.07649
-0.81080002 0.01639 0.17479999
-0.28780001 -0.17290001 -0.30540001
0.3229 -0.1073 -0.2026
-0.1997 -0.051419999 -0.24770001
0.6239 -0.008378 0.147
-0.05387 -0.1129 0.1099
-0.0207 0.01846 -0.92839998
-0.2814 -0.055270001 -0.20389999
0.57660002 -0.018479999 0.1552
0.14830001 -0.081090003 -0.1137
0.084360003 -0.067029998 -0.44940001
0.31389999 0.03325 0.91500002
-0.1981 -0.071269996 0.0036490001
-0.33329999 -0.097829998 -0.36399999
-0.0060680001 0.077030003 -0.28420001
0.086549997 0.0026750001 0.76050001
0.48010001 -0.024739999 0.082910001
-0.25119999 -0.036809999 -0.1824
-0.25979999 -0.094999999 -0.21950001
-0.02362 -0.055229999 0.66790003
0.00446 0.076810002 0.25409999
0.060819998 -0.095420003 -0.56620002
0.084069997 -0.066869996 0.3554
0.2886 -0.081649996 -0.15109999
0.28130001 0.029680001 0.90990001
-0.0942 -0.066140004 -0.33180001
-0.059429999 -0.117 0.056940001
0.0148 0.076140001 -0.09228
-0.085160002 0.024900001 -0.71030003
-0.095409997 -0.0025589999 0.2915
-0.084660001 -0.077349998 -0.36430001
-0.77399999 0.006356 0.2325
-0.01623 -0.084530003 0.55199999
0.01172 0.1148 0.65399998
-0.134 -0.1662 -0.042020001
-0.00071200001 -0.1166 0.1209
-0.026070001 0.02444 0.78680003
0.068899997 0.0102 0.7177
-0.53740001 -0.008742 0.048039999
-0.26699999 -0.081979997 -0.23810001
0.33739999 -0.089220002 -0.2317
-0.28040001 -0.1503 -0.27869999
0.0098670004 0.083070002 0.67519999
-0.1655 -0.1648 0.043719999
0.23289999 -0.040350001 -0.09008
-0.24600001 -0.090829998 -0.28639999
-0.16670001 -0.1568 -0.063840002
0.031950001 0.071120001 -0.2397
-0.1311 -0.16769999 0.041870002
-0.056880001 -0.070160002 -0.86489999
-0.1904 -0.077430002 -0.1393
-0.043979999 -0.067510001 -0.90960002
0.3114 -0.059009999 -0.28099999
-0.329 -0.138 -0.33419999
0.16419999 -0.075170003 0.003576
0.074429996 -0.062029999 -0.80320001
-0.77880001 -0.00078599999 0.1848
0.04848 -0.1035 0.2439
-0.088179998 -0.05923 0.1742
0.132 -0.076250002 -0.29010001
0.2438 -0.045600001 -0.21520001
0.046160001 0.065020002 -0.33750001
0.66530001 -0.01126 0.1954
0.41280001 -0.045340002 -0.094159998
-0.069130003 -0.071889997 -0.80809999
-0.042339999 -0.1065 -0.59859997
0.049789999 0.0634 0.3003
0.093489997 -0.082139999 -0.33180001
-0.0058220001 -0.1164 0.1635
0.0044010002 -0.1165 -0.44409999
-0.091289997 -0.051399998 -0.63239998
-0.33180001 -0.13519999 -0.3037
0.70840001 -0.0072260001 0.1902
-0.30939999 -0.062490001 -0.075879999
0.096869998 -0.023399999 -0.67320001
-0.2101 0.01949 0.77509999
0.055860002 0.05934 0.2062
0.089649998 -0.0073040002 0.4623
-0.06171 -0.094700001 0.28259999
-0.8319 0.016450001 0.1804
-0.1268 -0.083180003 -0.2771
-0.1443 -0.1776 -0.041080002
-0.00035799999 0.018060001 -0.9393
-0.073289998 0.04414 -0.2304
-0.05429 -0.040279999 0.6279
0.083800003 0.01386 0.47839999
0.053089999 0.061590001 0.3572
-0.09589 -0.034010001 0.22750001
0.032079998 0.071429998 0.24529999
0.096510001 -0.0133 0.09426
-0.5323 -0.030689999 -0.016279999
0.095849998 -0.0050630001 -0.55290002
0.1964 -0.041379999 -0.2093
-0.75999999 0.0083860001 0.19329999
-0.64429998 -0.01245 0.1955
-0.1705 -0.1763 -0.082209997
0.02421 0.030750001 -0.90710002
0.02836 0.072690003 0.1724
0.096539997 -0.023429999 -0.6146
-0.037939999 -0.00041499999 0.80839998
0.28529999 -0.1145 -0.3504
-0.072350003 -0.084720001 -0.39969999
-0.067460001 -0.089950003 -0.63419998
-0.685 -0.01254 0.086779997
0.096220002 -0.0087829996 0.2271
0.089740001 -0.1086 0.056949999
0.084849998 0.026310001 -0.48320001
-0.0060740001 0.081689999 0.58469999
0.02445 -0.01839 0.79170001
-0.068340003 0.0396 -0.76840001
-0.26199999 0.029379999 0.84570003
0.046119999 -0.059920002 -0.91399997
-0.2437 -0.094080001 -0.3161
0.74169999 0.0087909997 0.17659999
-0.038989998 -0.1082 -0.40849999
-0.38440001 -0.026079999 -0.1076
0.051399998 -0.077339999 -0.86690003
-0.48570001 -0.033569999 0.1261
0.057560001 -0.1161 0.088420004
-0.038989998 -0.1082 -0.66439998
-0.071539998 0.046270002 0.1742
-0.0041220002 0.1417 0.787
0.082740001 0.029789999 -0.3197
0.40529999 -0.035160001 0.061949998
-0.096110001 -0.0076159998 -0.35339999
-0.096110001 -0.0076159998 -0.1882
0.0091350004 0.049180001 0.7816
0.141 0.007894 0.7579
0.23450001 -0.066150002 0.02022
0.060819998 -0.095420003 0.3132
0.2626 -0.078809999 -0.2317
0.64950001 -0.0024949999 0.1363
0.55440003 -0.017859999 0.12549999
-0.26429999 -0.13789999 -0.29480001
0.3775 -0.04896 0.040879998
0.074709997 0.042380001 0.039179999
0.34720001 -0.094590001 -0.2744
-0.57599998 -0.024979999 0.11
0.050530002 0.043359999 -0.81669998
-0.08162 -0.1136 0.01253
-0.2793 -0.064110003 -0.3583
0.1305 -0.18619999 -0.025970001
-0.86000001 0.01396 0.27869999
0.077339999 0.03912 -0.55419999
0.01353 -0.093220003 -0.88910002
0.02187 -0.1877 -0.81629997
0.26980001 -0.1419 -0.3441
-0.2606 -0.070730001 -0.3179
-0.087800004 -0.1104 -0.1278
0.078270003 0.035190001 -0.7191
-0.8664 0.019239999 0.25209999
0.91570002 0.01627 0.25389999
0.5212 -0.03107 0.099420004
0.43090001 -0.01557 -0.03861
0.86729997 0.019269999 0.2018
0.33419999 -0.044739999 0.043049999
-0.28670001 -0.097230002 -0.171
-0.1233 -0.086819999 -0.1882
0.36210001 -0.050319999 -0.13150001
0.2974 -0.134 -0.1833
0.084370002 0.0040799999 0.81370002
-0.02916 0.039329998 0.75520003
-0.1918 -0.078359999 -0.21430001
-0.091289997 0.0043330002 0.80309999
0.36399999 -0.02382 -0.050280001
-0.043889999 -0.035289999 0.67879999
0.084799998 0.0264 -0.083410002
-0.87459999 0.01068 0.2274
-0.069920003 -0.01458 -0.85600001
-0.1521 -0.114 -0.03269
0.2491 -0.093889996 -0.2475
0.074340001 0.042309999 0.09781
0.004404 -0.059719998 0.66970003
-0.52560002 -0.034619998 0.026179999
0.0097960001 -0.1063 -0.82740003
0.091329999 0.01192 -0.25260001
0.3452 -0.1312 -0.25749999
0.079570003 0.036169998 0.27900001
0.095250003 -0.00148 -0.3628
-0.1605 -0.04513 -0.23810001
0.31690001 0.029200001 0.8962
-0.31020001 -0.060800001 -0.2148
-0.33379999 -0.1591 -0.2879
-0.23459999 -0.046 -0.22040001
-0.04225 -0.091689996 0.46090001
-0.078199998 -0.1149 -0.24510001
-0.82179999 0.01749 0.206
-0.28330001 0.024639999 0.8617
-0.44940001 -0.044149999 -0.056090001
-0.045529999 0.04214 -0.838
0.04304 0.02008 -0.89780003
0.079449996 0.036309998 0.3536
-0.091839999 0.01039 -0.4596
-0.091839999 0.01039 0.116
0.090769999 -0.052949999 -0.54000002
-0.31200001 -0.07739 -0.3712
0.6437 -0.01435 0.1793
0.66549999 -0.01361 0.1531
0.884 0.017890001 0.2895
0.042259999 -0.05192 -0.9303
0.1007 0.01142 0.7924
0.5158 -0.0306 0.1207
-0.089869998 -0.1028 -0.33149999
0.3087 -0.1409 -0.2163
-0.0048790001 0.1682 0.66469997
0.91600001 0.018540001 0.2809
-0.1391 -0.1547 -0.01261
0.064690001 0.047019999 -0.7493
-0.59890002 -0.01375 0.01375
0.031490002 0.0082799997 0.78310001
-0.029170001 0.072080001 0.2226
0.18089999 -0.037099998 -0.1674
0.25510001 -0.1186 -0.3303
-0.1697 0.018820001 0.82080001
-0.00832 0.065789998 0.7166
0.096349999 -0.02844 0.38190001
0.27129999 -0.061629999 0.025280001
-0.3504 -0.1041 -0.3637
0.177 -0.1558 -0.01915
0.095590003 -0.036630001 0.1533
0.1541 -0.082079999 -0.0087959999
0.28040001 -0.059560001 -0.26289999
-0.27379999 -0.043839999 -0.1989
0.039930001 0.0197 0.71310002
-0.04775 -0.0032870001 0.72229999
0.26019999 -0.16159999 -0.33919999
-0.1452 -0.156 0.032400001
-0.070009999 -0.087439999 0.1831
0.052469999 0.0075130002 0.73909998
0.69709998 -0.0099689998 0.16329999
0.079449996 0.036309998 0.375
-0.06684 0.0085420003 0.7586
0.26949999 -0.085340001 -0.3635
0.1269 -0.080200002 -0.01242
0.26859999 -0.08106 -0.2631
0.045910001 -0.029139999 0.68510002
-0.14560001 -0.076870002 0.02451
0.57340002 -0.0085540004 0.088569999
0.043000001 -0.08794 0.47999999
-0.018990001 -0.05071 0.69489998
-0.059300002 -0.000741 0.73379999
-0.092809997 -0.1052 -0.0052299998
-0.1042 -0.082599998 0.0015820001
-0.1329 -0.1728 -0.0095729996
-0.1557 0.0163 0.87230003
0.31459999 -0.061140001 -0.1426
-0.073169999 0.044050001 0.38769999
0.0067509999 0.17309999 0.68110001
0.26069999 -0.036120001 -0.08196
-0.0042559998 0.1631 0.79229999
-0.34990001 -0.02318 -0.068240002
-0.30340001 -0.1131 -0.1529
0.58410001 -0.02276 0.01511
-0.07942 0.01846 0.53659999
-0.074560001 -0.08196 -0.53109998
-0.060059998 0.0056750001 -0.87519997
-0.3204 0.028759999 0.87830001
0.2604 -0.032809999 -0.1504
0.096950002 -0.01833 0.0036490001
0.15350001 0.01067 0.81370002
0.2626 -0.072930001 -0.3637
0.15350001 -0.074950002 0.051539999
0.1637 -0.1662 0.00029699999
0.2014 -0.046209998 -0.2318
0.16509999 -0.060540002 -0.013
0.31869999 -0.076629996 -0.24349999
0.2827 -0.072400004 -0.20990001
-0.51840001 -0.032960001 -0.02375
0.59549999 -0.0178 0.1759
0.089429997 -0.041999999 -0.76109999
0.04112 -0.1048 -0.7529
-0.5079 -0.033199999 -0.034189999
0.32710001 -0.05088 -0.1628
0.33329999 -0.1015 -0.3202
-0.078599997 -0.028729999 -0.82200003
0.2282 -0.041409999 -0.20900001
0.1392 0.01401 0.86729997
0.0091439998 0.067120001 0.68049997
0.1533 -0.1768 0.01926
0.2067 0.01702 0.85089999
-0.5467 -0.01254 -0.0084419996
-0.032930002 -0.061480001 -0.9411
0.01019 -0.023630001 0.82080001
-0.6462 -0.004807 0.1525
-0.0058200001 0.17900001 0.77640003
0.02091 0.065970004 0.62290001
0.0094999997 -0.1161 -0.49739999
0.1811 -0.076800004 -0.2385
0.072949998 -0.076650001 -0.76880002
-0.094339997 0.0023680001 -0.38010001
-0.080470003 -0.041069999 0.49489999
-0.0229 -0.1139 -0.4192
-0.0111 -0.1159 -0.4707
-0.0229 -0.1139 0.27900001
0.0049729999 0.2264 0.7234
-0.25709999 -0.1218 -0.36669999
-0.075300001 0.0044740001 0.84039998
0.047770001 -0.077469997 0.51459998
0.41670001 -0.039799999 0.1018
0.065470003 0.052269999 0.01253
-0.21430001 -0.047049999 -0.065930001
-0.081090003 -0.073260002 -0.49559999
0.094230004 0.0027020001 0.056940001
0.2762 -0.059939999 0.051569998
0.3299 -0.08777 -0.24339999
0.13770001 0.0094830003 0.82440001
-0.34529999 -0.046209998 0.058959998
-0.18780001 -0.063819997 0.035130002
0.49829999 -0.032880001 -0.042920001
-0.72210002 0.003789 0.18350001
-0.1531 -0.06146 -0.020719999
-0.01474 -0.078309998 -0.93229997
0.093309999 -0.04431 -0.66780001
0.02602 -0.1129 -0.65149999
-0.033059999 -0.12710001 -0.84640002
0.53299999 -0.028759999 0.1212
0.092440002 0.0075030001 0.13689999
0.15350001 -0.097989999 -0.02165
0.29769999 -0.049139999 -0.1989
-0.6433 -0.001793 0.1286
0.2176 -0.07062 -0.049690001
-0.76300001 0.01251 0.1477
0.065099999 0.05257 -0.62169999
-0.2726 -0.07412 -0.2201
0.03111 -0.1157 0.1046
0.31779999 -0.088689998 -0.2089
-0.1283 0.0061690002 0.7392
0.00027399999 0.01205 0.9152
-0.53479999 -0.01702 0.098399997
-0.0229 -0.1139 -0.45649999
-0.002085 0.077830002 0.79750001
-0.0283 -0.0060950001 -0.9515
-0.32659999 -0.1618 -0.27579999
-0.2511 -0.05181 0.0091549996
-0.28560001 -0.1557 -0.36790001
0.4813 -0.04019 0.00082399999
-0.59289998 -0.01561 0.1578
-0.3653 -0.05587 -0.072619997
0.59259999 -0.0080669997 0.1072
0.33590001 -0.1141 -0.3055
0.068180002 -0.1167 -0.033670001
0.49419999 -0.01908 0.064400002
-0.3211 -0.1083 -0.1895
-0.0049419999 -0.1786 -0.81840003
-0.0229 -0.1139 -0.53109998
0.14120001 -0.19149999 0.030379999
0.068180002 -0.1167 -0.01235
0.27700001 -0.049789999 0.01888
-0.090999998 -0.039820001 -0.74830002
0.1787 -0.163 -0.075319998
-0.1812 -0.051449999 -0.25580001
-0.26249999 -0.053879999 0.03503
-0.096110001 -0.039930001 -0.2362
0.33829999 -0.1002 -0.2217
-0.33809999 -0.1033 -0.2309
0.069499999 -0.076250002 0.42699999
0.035209998 -0.081050001 0.53609997
0.076729998 -0.1153 -0.25220001
-0.2782 -0.080990002 -0.3655
0.1481 0.01161 0.85089999
0.1454 -0.1257 -0.01428
0.43329999 -0.040339999 0.096809998
-0.02843 0.072130002 0.53130001
-0.4691 -0.0416 -0.043839999
0.080789998 -0.052609999 0.45640001
-0.3249 -0.1653 -0.35370001
0.80900002 0.015629999 0.1699
0.073080003 -0.072889999 -0.78219998
0.095250003 -0.00148 -0.51200002
0.62239999 -0.01966 0.1207
0.025490001 -0.1028 -0.83840001
-0.05593 -0.053909998 0.58469999
-0.74070001 0.002318 0.21780001
-0.07463 0.00073600002 0.6918
-0.1124 0.0045449999 0.7234
0.1681 -0.17990001 -0.0337
0.3186 0.028550001 0.87760001
-0.1551 -0.074780002 0.056869999
0.001417 -0.1337 -0.82340002
-0.043110002 2.8e-05 -0.92460001
-0.27900001 -0.076880001 -0.2863
0.092430003 -0.033950001 -0.74229997
-0.038830001 -0.022050001 0.72839999
0.83090001 0.017750001 0.2167
-0.098070003 0.0037779999 0.7058
-0.044520002 0.061560001 -0.74269998
-0.027310001 -0.02403 0.76899999
-0.1612 -0.08106 -0.2422
-0.032779999 0.07096 -0.1181
-0.28889999 -0.1714 -0.28459999
0.32749999 -0.1383 -0.2735
0.3285 -0.068000004 -0.31479999
0.072789997 -0.032639999 0.56830001
0.01059 0.095550001 0.66759998
-0.043979999 0.066299997 -0.69989997
-0.051089998 -0.028720001 -0.91710001
0.094870001 -0.097939998 0.0036470001
-0.08563 0.025110001 -0.01767
0.2931 -0.08783 -0.1839
0.1062 -0.06859 -0.01268
0.020819999 -0.1837 -0.79979998
-0.016519999 0.03015 0.83579999
0.0038020001 0.32499999 0.81309998
-0.13169999 -0.1726 -0.024180001
0.56410003 -0.028349999 0.067589998
0.25240001 -0.1037 -0.2225
0.2712 -0.13 -0.2154
0.1753 -0.1696 -0.062689997
-0.074239999 -0.080229998 0.39160001
0.030470001 -0.065860003 -0.93870002
0.2316 0.0185 0.82190001
-0.1054 -0.079510003 -0.30860001
0.053459998 -0.023250001 0.66409999
-0.072700001 -0.0287 -0.84829998
-0.31779999 -0.06515 -0.35839999
-0.43790001 -0.02427 -0.082910001
0.78219998 -0.00040399999 0.1533
-0.2563 -0.1042 -0.2473
0.13259999 -0.072999999 0.051479999
-0.77890003 0.0132 0.153
0.2818 -0.034329999 -0.16760001
0.7978 0.001503 0.16410001
-0.75470001 -0.0027900001 0.12909999
-0.0063919998 0.31799999 0.81950003
-0.00054899999 -0.043439999 -0.99559999
0.084360003 -0.067029998 0.30739999
0.094810002 -0.098049998 -0.2095
0.27869999 -0.072520003 -0.23639999
-0.027070001 -0.1082 0.40779999
-0.4005 -0.02273 -0.086329997
0.095339999 -0.050050002 -0.1136
0.03748 -0.1371 -0.79009998
-0.60820001 -0.0036549999 0.041480001
0.035429999 -0.1248 -0.83310002
0.34450001 -0.1461 -0.3321
0.25 -0.05824 0.051180001
0.021779999 0.071869999 0.5758
0.32170001 -0.14380001 -0.26280001
0.090039998 0.01558 -0.40900001
-0.01633 0.060279999 0.67500001
0.271 -0.081490003 -0.29499999
-0.032979999 -0.1103 -0.76749998
0.83649999 0.016419999 0.2377
0.092009999 -0.048760001 0.3134
-0.052579999 -0.1013 0.2915
0.041390002 -0.107 -0.433
0.074280001 -0.0084380005 -0.83609998
-0.089029998 0.017890001 -0.044319998
0.3362 -0.1088 -0.2735
0.0041769999 0.1461 0.6437
-0.8222 0.0082050003 0.25889999
0.1682 -0.18440001 0.000267
-0.019169999 0.068470001 0.61150002
0.002145 0.1577 0.82429999
-0.018959999 -0.045000002 0.71880001
-0.1653 -0.18629999 -0.01271
-0.2746 -0.064410001 -0.2685
-0.045430001 -0.078309998 0.5219
-0.53049999 -0.029270001 0.1192
0.28729999 -0.02702 -0.1136
-0.26390001 -0.15970001 -0.36359999
0.29969999 -0.080940001 -0.12989999
0.1788 -0.16779999 -0.0022169999
-0.087410003 0.02155 -0.2095
0.096139997 -0.028100001 0.062240001
0.4253 -0.042660002 0.067479998
-0.0058229999 0.058770001 -0.8272
0.095250003 -0.00148 -0.21349999
0.52609998 -0.016380001 -0.02685
0.76560003 0.0045909998 0.1278
-0.27649999 -0.066260003 -0.25
0.04848 -0.1035 -0.62480003
0.027550001 0.07254 0.4438
0.092759997 0.0075960001 -0.0016890001
-0.1603 -0.1786 0.019850001
-0.3671 -0.051970001 -0.1229
-0.001471 0.1957 0.84810001
-0.053509999 0.04157 0.62419999
-0.2177 0.02118 0.90499997
0.76749998 0.002571 0.2445
-0.02609 0.045820002 -0.85869998
-0.050919998 0.06247 -0.3908
0.08941 -0.056510001 -0.61989999
-0.27669999 -0.1225 -0.1806
-0.005713 0.259 0.80839998
-0.29390001 -0.139 -0.2086
-0.1628 -0.0656 0.028240001
0.6221 -0.006916 0.036479998
0.077299997 -0.050099999 -0.81190002
-0.1771 -0.1609 -0.0010479999
-0.62510002 -0.0114 0.1683
-0.08563 0.025110001 -0.62529999
0.005901 0.1045 0.74419999
0.50330001 -0.034589998 0.06498
0.14129999 -0.18539999 -0.077930003
-0.29010001 -0.1517 -0.2414
0.156 -0.14569999 -0.029200001
0.052990001 -0.01074 -0.91439998
0.13789999 -0.1665 -0.03774
-0.51340002 -0.02297 0.1094
-0.034729999 -0.1321 -0.8222
-0.3089 -0.152 -0.27700001
-0.042339999 -0.1065 -0.62529999
-0.01581 -0.0073009999 0.84579998
0.266 -0.14049999 -0.25569999
-0.07186 0.042599998 0.44060001
-0.007524 0.01912 0.8822
-0.078759998 -0.076710001 -0.63239998
-0.089029998 0.017890001 -0.2735
-0.079949997 0.035629999 -0.16689999
0.089780003 0.0023109999 0.7022
-0.03627 0.066019997 0.57389998
0.0049330001 0.1121 0.6103
-0.02348 -0.1084 -0.78710002
-0.0032810001 0.1945 0.68099999
-0.53640002 -0.0075690001 0.01591
0.3211 -0.1202 -0.2036
0.44159999 -0.01871 -0.060320001
-0.095030002 -0.039000001 0.30739999
0.080219999 -0.1142 -0.060309999
-0.088179998 -0.05923 -0.5826
0.63309997 -0.0196 0.1047
-0.08563 0.025110001 0.1742
-0.091839999 0.01039 -0.2358
-0.25150001 -0.070390001 -0.1778
0.26570001 0.029370001 0.8617
0.67379999 -0.01265 0.076619998
0.71880001 -0.0038729999 0.2247
-0.2563 -0.1181 -0.25749999
0.057489999 -0.070459999 0.50950003
0.3028 -0.049479999 -0.27880001
0.27700001 -0.081649996 -0.33250001
-0.2164 0.02507 0.81690001
0.095250003 -0.00148 -0.46939999
0.0030759999 0.2164 0.82959998
0.073530003 -0.06312 0.4589
-0.094509996 -0.1018 -0.2309
-0.01249 -0.1029 -0.85009998
-0.047230002 0.063929997 0.23280001
0.061000001 0.053679999 0.43579999
0.24420001 -0.05046 -0.0075670001
0.0392 0.068609998 -0.1953
-0.036830001 0.069629997 -0.001685
-0.3019 -0.077809997 -0.3351
0.1894 -0.057720002 -0.25819999
-0.1389 -0.083860002 -0.1564
0.45370001 -0.028589999 0.08117
0.082369998 -0.070210002 -0.71030003
0.074819997 0.041979998 -0.42989999
-0.047230002 0.063929997 0.1102
-0.06171 -0.094700001 -0.50620002
0.070179999 -0.05243 0.52039999
-0.036540002 0.069399998 -0.081200004
0.42390001 -0.030999999 -0.1002
0.25760001 -0.1594 -0.3037
0.13789999 -0.1408 -0.01542
0.12909999 -0.1735 0.042010002
0.0392 0.068609998 0.33759999
0.3513 -0.1231 -0.28209999
-0.29359999 -0.057810001 0.0568
-0.091839999 0.01039 -0.59280002
-0.059289999 -0.04039 0.6092
-0.001122 0.29719999 0.88849998
-0.087410003 0.02155 -0.49739999
0.30919999 -0.07423 -0.2737
0.064649999 -0.078939997 -0.80610001
-0.18080001 -0.16240001 0.04067
-0.29030001 0.03032 0.91900003
-0.089259997 0.01284 -0.72100002
0.080229998 -0.1142 -0.16159999
-0.092009999 -0.091849998 0.096790001
0.079910003 -0.028750001 -0.81489998
0.067230001 0.05029 0.2719
0.06244 0.01531 0.62379998
-0.088229999 -0.054110002 -0.73159999
0.04964 0.063100003 -0.3179
-0.17659999 -0.075879999 -0.055020001
0.095849998 -0.0050639999 -0.66479999
0.074029997 0.042429999 0.070900001
0.05683 0.01449 0.65020001
-0.023669999 0.04129 -0.87739998
-0.05999 -0.071529999 0.4921
-0.043979999 0.066299997 -0.67860001
-0.15530001 0.0094799995 0.7658
0.062059999 0.054579999 0.33590001
-0.04713 -0.1058 -0.37909999
-0.072350003 -0.084720001 -0.44760001
0.07835 -0.076690003 -0.48140001
0.052760001 0.0061769998 0.78170002
0.244 -0.09663 -0.266
0.035569999 0.070100002 -0.033659998
-0.045790002 -0.039140001 -0.92790002
0.094760001 -0.034630001 -0.71640003
0.05291 0.061299998 -0.6182
0.053089999 0.061590001 -0.15449999
-0.72960001 -0.002819 0.22849999
0.046239998 0.065169998 -0.1776
0.185 -0.078740001 -0.21969999
-0.60390002 -0.01802 0.17749999
0.22229999 0.017309999 0.79820001
-0.34150001 -0.048579998 -0.1552
-0.071249999 0.037 0.54180002
-0.42809999 -0.023080001 0.01343
0.26230001 -0.06865 -0.28960001
-0.070529997 0.0057020001 -0.83819997
-0.25139999 0.028750001 0.82440001
-0.043850001 0.065990001 0.02496
-0.081090003 -0.073260002 0.2133
0.31400001 -0.055070002 0.05711
0.25490001 -0.1187 -0.26159999
-0.082939997 -0.069899999 0.3714
-0.070249997 -0.041499998 0.56419998
0.096869998 -0.023399999 0.2062
0.29260001 -0.035969999 -0.05525
0.23810001 -0.055939998 0.027179999
0.01984 0.05954 -0.8114
-0.047449999 0.064379998 -0.31079999
0.28220001 -0.1716 -0.34799999
0.3053 -0.17309999 -0.3317
-0.015629999 -0.1154 0.3554
0.5923 -0.01204 0.01236
0.053070001 0.0616 -0.2184
-0.59710002 -0.0067230002 0.02626
0.053089999 0.061590001 0.28259999
-0.1824 -0.071369998 0.056740001
0.094839998 -0.040150002 -0.59289998
-0.46509999 -0.031830002 0.1097
0.1647 -0.18009999 -0.07756
0.2492 0.02087 0.81419998
-0.32190001 -0.1569 -0.24879999
-0.089570001 -0.02863 0.45109999
0.255 -0.04476 -0.03424
0.27540001 -0.093189999 -0.1954
-0.1319 -0.18700001 0.04008
-0.2036 -0.07243 -0.049150001
-0.0050550001 0.18970001 0.7924
0.1452 -0.1749 -0.068669997
0.083159998 0.0297 0.1173
0.069729999 0.047339998 0.32699999
0.088270001 0.018890001 0.2608
0.087959997 0.018759999 -0.53869998
-0.049819998 0.051720001 0.60000002
0.062259998 0.04479 -0.77200001
0.078359999 -0.076949999 -0.60399997
-0.1603 0.01249 0.84560001
-0.15629999 -0.16240001 -0.022919999
-0.80949998 0.01221 0.16069999
-0.066019997 0.051830001 0.078259997
0.01232 0.056779999 -0.83420002
0.072530001 0.0451 -0.1118
0.054779999 -0.099959999 -0.50800002
-0.1505 -0.1679 -0.003666
-0.317 -0.1494 -0.28940001
-0.031709999 -0.111 -0.61989999
0.1029 -0.087959997 -0.1559
-0.3459 -0.1459 -0.3443
-0.063770004 0.048700001 0.5151
0.59509999 -0.0071120001 0.02613
-0.088030003 -0.017820001 0.47760001
0.2877 -0.063989997 -0.049860001
-0.2036 0.022360001 0.82440001
0.002199 0.2217 0.84560001
-0.1559 -0.064779997 0.0084490003
-0.48050001 -0.01228 -0.0156
-0.1927 -0.03971 -0.19670001
-0.039469998 -0.1049 -0.77700001
-0.064620003 -0.01811 0.62339997
-0.29899999 -0.16850001 -0.2701
-0.66189998 -0.003603 0.16329999
-0.3531 -0.1227 -0.35139999
0.38609999 -0.045290001 -0.121
-0.05711 0.05892 -0.36899999
0.29769999 -0.1415 -0.20999999
0.1222 0.0074939998 0.80860001
0.061269999 0.050080001 0.53820002
-0.024 -0.098240003 0.46830001
0.060199998 0.053169999 0.49219999
0.067670003 0.049509998 0.14929999
-0.04806 0.0233 -0.87989998
0.3389 -0.082610004 -0.2561
0.30759999 -0.1559 -0.23190001
-0.1608 -0.041030001 -0.1671
0.30270001 -0.080849998 -0.20990001
-0.68769997 -0.0141 0.1051
0.31900001 -0.1035 -0.33860001
0.019719999 0.07525 -0.33750001
0.14830001 -0.066330001 0.01379
-0.086379997 -0.068640001 0.127
0.08625 -0.053780001 -0.75779998
0.062270001 0.05483 -0.26109999
-0.02022 0.034170002 0.81339997
0.034790002 0.068429999 0.5575
0.0032019999 0.13590001 0.62830001
0.054129999 -0.054189999 0.58950001
0.1954 -0.050639998 -0.058010001
0.038559999 0.066969998 -0.71689999
-0.034079999 -0.092739999 -0.8617
0.053089999 0.061590001 0.112
0.82499999 0.006201 0.2219
0.071379997 -0.085390002 0.3448
0.27250001 -0.14740001 -0.2227
-0.118 -0.049600001 -0.2674
0.8786 0.01967 0.26949999
-0.29949999 -0.1329 -0.1876
-0.074610002 -0.081900001 -0.62169999
0.26289999 -0.13779999 -0.3344
0.1322 -0.05522 -0.087180004
0.51550001 -0.03221 -0.02767
0.091420002 0.001648 0.41890001
-0.17129999 0.01496 0.87769997
-0.2599 -0.084830001 -0.2269
-0.2647 -0.074320003 -0.24779999
0.18099999 -0.059429999 -0.0022199999
-0.074790001 -0.076820001 -0.75480002
0.1753 0.01458 0.75340003
0.61159998 -0.02193 0.041409999
-0.29899999 -0.17380001 -0.33199999
0.007394 -0.1411 -0.81519997
0.5054 -0.01318 -0.02296
-0.1128 -0.102 -0.02024
0.83459997 0.01067 0.27090001
0.3662 -0.040070001 0.048439998
0.0036770001 0.083080001 0.77109998
0.60640001 -0.020339999 0.1367
0.15350001 0.018929999 0.73720002
0.071379997 -0.0854 -0.57200003
0.072810002 -0.01278 0.5898
0.31369999 -0.1355 -0.3407
-0.1233 0.0098369997 0.8617
-0.35569999 -0.050900001 0.050439999
0.091310002 0.01193 0.1098
0.30329999 0.02901 0.92070001
-0.06453 -0.035429999 0.59850001
0.06763 -0.057549998 -0.84600002
-0.178 -0.16869999 -0.06202
-0.3082 -0.07102 -0.1882
0.0028270001 0.1204 0.79769999
-0.70389998 -0.0088240001 0.17389999
-0.000742 -0.06357 0.65329999
-0.08072 0.027100001 -0.7396
-0.6293 -0.019470001 0.1153
0.092869997 0.0084589999 0.68409997
-0.30140001 -0.075759999 -0.1034
0.054779999 -0.099959999 -0.4867
0.054779999 -0.099959999 0.2701
0.27950001 0.030060001 0.8836
0.15009999 -0.1613 0.0069240001
-0.053830002 0.01038 0.7069
0.1576 -0.078620002 -0.024499999
0.28740001 -0.03107 -0.087329999
-0.31569999 -0.02957 -0.12899999
0.28830001 -0.049710002 0.033179998
0.090400003 0.0088550001 0.83490002
-0.04761 0.062980004 0.4779
0.076130003 -0.079460002 0.2595
0.08162 0.032930002 -0.0070139999
0.61379999 -0.01382 0.025599999
-0.02031 -0.063450001 -0.95999998
0.26460001 -0.096759997 -0.3369
0.41999999 -0.048980001 -0.065480001
0.081490003 0.03283 -0.36939999
0.79320002 0.004801 0.24869999
-0.19220001 -0.077969998 -0.1564
0.028109999 0.04611 -0.85790002
0.06442 -0.073650002 -0.82740003
-0.018239999 -0.086520001 -0.90920001
0.0044249999 0.3114 0.8035
-0.095349997 -0.097750001 0.0089739999
-0.034230001 -0.1141 -0.80659997
0.4479 -0.024669999 0.045929998
0.02634 0.036899999 0.77399999
0.036029998 -0.13609999 -0.80339998
-0.059870001 0.05632 0.35049999
0.070519999 0.0123 -0.82709998
0.02441 0.05432 0.69620001
0.35170001 -0.1059 -0.28659999
-0.23019999 -0.072329998 -0.1184
0.48300001 -0.031819999 -0.059020001
0.22750001 -0.051040001 -0.020710001
-0.3901 -0.05037 -0.0129
0.76109999 -0.004131 0.15790001
-0.35330001 -0.12800001 -0.3197
-0.1762 -0.072939999 0.035459999
0.14749999 -0.050980002 -0.106
-0.051569998 -0.07564 0.50889999
-0.1095 0.01371 0.75319999
0.60229999 -0.001562 0.07756
-0.0074609998 0.2058 0.76020002
0.32159999 -0.064400002 -0.33379999
-0.26800001 -0.101 -0.2124
0.1182 -0.050609998 -0.1432
0.50470001 -0.01352 0.043170001
0.067819998 -0.036880001 0.58109999
-0.73790002 0.0038709999 0.11
-0.05886 -0.096979998 -0.65899998
0.55440003 -0.01363 0.099260002
-0.62120003 -0.0071859998 0.1346
-0.29929999 -0.049309999 -0.24680001
0.25670001 -0.034430001 -0.1007
0.3206 -0.034120001 -0.036699999
0.0068870001 0.1145 0.62779999
-0.26199999 -0.13339999 -0.25479999
-0.31169999 -0.051520001 -0.17900001
-0.074600004 0.040130001 0.42460001
-0.01131 0.097929999 0.63319999
0.003755 0.184 0.67610002
-0.33750001 -0.1195 -0.25749999
-0.082970001 0.002569 0.52579999
0.1058 -0.088349998 -0.1778
-0.1477 -0.077299997 0.0046199998
-0.0021259999 0.1258 0.81349999
-0.51200002 -0.017619999 -0.035870001
