# .PCD v0.7 - Point Cloud Data file format
VERSION 0.7
FIELDS x y z rgb
SIZE 4 4 4 4
TYPE F F F U
COUNT 1 1 1 1
WIDTH 1236
HEIGHT 1
VIEWPOINT 0 0 0 1 0 0 0
POINTS 1236
DATA ascii
12.506433 41.084175 150.32347 21771308
12.505691 41.085022 150.29343 21771821
12.505071 41.085163 150.26352 21837102
12.504353 41.085884 150.23355 21771823
12.50377 41.085808 150.20374 21706289
12.503138 41.086037 150.17389 21641008
12.502556 41.085964 150.14412 21706033
12.501825 41.086769 150.11423 21902384
12.501206 41.086922 150.08447 21706030
12.500587 41.087082 150.05473 21509422
12.499944 41.087387 150.02501 21574958
12.499251 41.087978 149.99525 21574704
12.498709 41.087708 149.96565 21509423
12.497967 41.088593 149.9359 21509170
12.497361 41.088688 149.90628 21575476
12.496646 41.089428 149.8766 21575219
12.496078 41.08931 149.84706 21574451
12.495473 41.089413 149.8175 21509938
12.494918 41.089226 149.78801 21509169
12.494277 41.089546 149.75845 21575217
12.493599 41.09008 149.72891 21509682
12.492934 41.090538 149.69939 21378355
12.49227 41.091003 149.66989 21443636
12.491654 41.091183 149.64044 21509684
12.491003 41.091576 149.61098 21443891
12.490363 41.091896 149.58154 21509171
12.489847 41.091507 149.55222 21443634
12.489136 41.092255 149.52277 21116212
12.488633 41.091789 149.49347 21443379
12.487958 41.092331 149.46408 21311538
12.487247 41.09309 149.43469 21246257
12.486673 41.093048 149.4054 21246001
12.485963 41.093803 149.37604 21114670
12.485229 41.094696 149.34668 21246255
12.484692 41.094448 149.31744 21245748
12.484019 41.094986 149.28816 21114163
12.483434 41.095024 149.25893 20984113
12.482763 41.095558 149.22966 21114932
12.482203 41.095448 149.20047 21376564
12.481705 41.094982 149.1713 21113646
12.481318 41.093861 149.1422 20916783
12.480734 41.093895 149.11301 20720176
12.479905 41.095364 149.08374 20589102
12.479114 41.096619 149.0545 20589358
12.478436 41.097218 149.02533 20916780
12.477682 41.098251 148.99614 21047086
12.477015 41.098785 148.96698 20916524
12.476337 41.09938 148.93785 20916779
12.475745 41.099476 148.90874 20850989
12.475042 41.100224 148.87961 20719918
12.474329 41.10104 148.85048 20784430
12.473726 41.1012 148.8214 20916014
12.472965 41.102295 148.79228 20523307
12.472386 41.102322 148.76323 20719405
12.471748 41.102692 148.73416 20654125
12.471123 41.102997 148.70509 20719920
12.470498 41.103298 148.67604 20654637
12.469935 41.103233 148.64702 20719662
12.469445 41.102741 148.618 20654123
12.46892 41.102459 148.58897 20654124
12.468357 41.102394 148.55994 20718896
12.467661 41.103119 148.53091 20522799
12.467004 41.103622 148.50188 20784172
12.466357 41.104053 148.47285 20653358
12.465699 41.104557 148.44385 20522543
12.464957 41.105564 148.41483 20653358
12.464373 41.105637 148.38582 20653612
12.463679 41.106346 148.35681 20653610
12.46306 41.106628 148.32782 20653613
12.462502 41.106544 148.29881 20588080
12.461957 41.106384 148.26982 20588334
12.461303 41.106876 148.24083 20587822
12.46071 41.107002 148.21182 20653102
12.460215 41.106552 148.18283 20587310
12.459525 41.107254 148.15384 20456749
12.458908 41.107521 148.12483 20325677
12.458414 41.107063 148.09583 20391214
12.457884 41.106823 148.06682 20260397
12.457414 41.106216 148.0378 20390954
12.456933 41.105682 148.00877 20325673
12.456536 41.104649 147.97972 20259881
12.456203 41.103241 147.95065 19735079
12.45588 41.101765 147.92157 19865895
12.455205 41.102379 147.89255 19800617
12.454481 41.103279 147.86354 19931687
12.453856 41.1036 147.83452 19735077
12.453074 41.104851 147.80553 19800612
12.452462 41.105095 147.77647 19800613
12.45186 41.105274 147.74744 19603492
12.451213 41.105728 147.7184 19603749
12.450686 41.105465 147.68932 19669028
12.450123 41.105412 147.66023 19472418
12.449499 41.105724 147.63116 19537697
12.448936 41.105675 147.60207 19472418
12.448265 41.106262 147.57301 19472418
12.447642 41.106571 147.54391 19538469
12.446971 41.107166 147.51485 19472422
12.446348 41.107468 147.48575 19472677
12.445726 41.107769 147.45663 19669029
12.4452 41.107494 147.42747 19603494
12.444651 41.107357 147.39832 19603495
12.444029 41.107658 147.36917 19603241
12.443563 41.107025 147.33995 19734311
12.443036 41.106747 147.31075 19537699
12.442378 41.107258 147.28159 19603235
12.441721 41.107765 147.25243 19734051
12.497673 41.082829 151.32678 20980505
12.496823 41.084167 151.29549 21111835
12.496105 41.084751 151.26443 21111838
12.495375 41.085407 151.2334 21178143
12.494679 41.085865 151.20245 21309215
12.493911 41.086758 151.17145 20652058
12.493273 41.086887 151.14066 20980506
12.492577 41.087372 151.10983 21375004
12.491914 41.087658 151.07909 21440797
12.49124 41.088024 151.04836 21440798
12.490612 41.088112 151.01773 21441053
12.489924 41.088566 150.98706 21440797
12.489237 41.08902 150.95642 21507363
12.488596 41.089207 150.92587 21507104
12.487799 41.090309 150.89517 20324119
12.487193 41.090294 150.86475 19864084
12.48642 41.091274 150.83414 20914461
12.485873 41.090923 150.80385 21572898
12.485256 41.090996 150.7735 21573409
12.484626 41.091145 150.74316 21770019
12.48402 41.091156 150.71289 21770276
12.483438 41.091034 150.68268 21639716
12.482903 41.090637 150.65256 21705764
12.482322 41.090519 150.62239 21770536
12.481691 41.090691 150.59221 21835816
12.481108 41.090591 150.5621 20981021
12.480562 41.090271 150.53207 21704483
12.480028 41.089897 150.50208 21705768
12.479506 41.089451 150.47212 21771306
12.479008 41.088863 150.44221 21902123
12.47857 41.087925 150.4124 21967660
12.478132 41.08699 150.3826 21639722
12.477442 41.087551 150.35257 21706534
12.476702 41.088398 150.32251 21706283
12.475998 41.089043 150.29251 21837103
12.47539 41.089115 150.26265 21837615
12.474665 41.089897 150.23268 21640750
12.474033 41.090118 150.20284 21771567
12.473438 41.090137 150.17305 21640491
12.472796 41.090427 150.14325 21771055
12.47213 41.090874 150.11343 21836337
12.471585 41.090607 150.08377 21640238
12.470871 41.091335 150.05397 21574703
12.470242 41.091576 150.02426 21509171
12.469564 41.092091 149.99455 21443375
12.468972 41.092113 149.96492 21574962
12.468318 41.092503 149.93527 21444146
12.467606 41.093239 149.90559 21378355
12.466916 41.093849 149.87595 21640754
12.466361 41.093666 149.84644 21706034
12.46572 41.093987 149.81688 21706547
12.465094 41.094231 149.78734 21509683
12.464575 41.093838 149.75792 21640498
12.463888 41.094444 149.72838 21444402
12.46325 41.094761 149.6989 21509683
12.462612 41.095085 149.66943 21444149
12.461926 41.095695 149.63995 21443892
12.461349 41.095661 149.61057 21705778
12.460628 41.096481 149.58112 21705525
12.460111 41.096096 149.55179 21378098
12.459522 41.096142 149.52245 21312564
12.458886 41.096462 149.49309 21508659
12.458323 41.096359 149.46379 21442610
12.45764 41.09697 149.43443 21311283
12.456957 41.09758 149.40511 21179954
12.456239 41.098408 149.37576 21114926
12.455652 41.09845 149.34651 21245745
12.455006 41.09885 149.31723 21246258
12.454336 41.099388 149.28796 21245490
12.453765 41.099354 149.25876 21114928
12.453181 41.099388 149.22955 21311794
12.452622 41.099277 149.20038 21245233
12.452124 41.098816 149.17123 20981804
12.451735 41.097694 149.14215 20982063
12.451043 41.098377 149.11295 20719918
12.450256 41.099632 149.08372 20851244
12.449434 41.101097 149.05449 20785452
12.44877 41.101631 149.02534 20916013
12.448069 41.102379 148.99619 20850733
12.44738 41.103054 148.96706 20917037
12.446729 41.103512 148.93794 20916268
12.446077 41.103973 148.90883 20785451
12.445366 41.10479 148.87973 20719919
12.44474 41.105095 148.85065 20981550
12.444066 41.105701 148.82156 20850477
12.443429 41.106079 148.79251 20588843
12.442757 41.106678 148.76344 20654125
12.442023 41.107632 148.73438 20588588
12.441486 41.107422 148.70537 20719662
12.440874 41.107658 148.67633 20719662
12.440264 41.107887 148.64731 20523566
12.439775 41.107388 148.61832 20850478
12.439189 41.107471 148.58931 20850221
12.438725 41.106827 148.56032 20653870
12.438044 41.107483 148.53131 20653869
12.437423 41.107777 148.5023 20718893
12.43672 41.108566 148.4733 20718893
12.436018 41.109356 148.44431 20719408
12.435338 41.110008 148.41531 20653614
12.434793 41.109856 148.38634 20457003
12.434078 41.110718 148.35736 20457518
12.433497 41.110779 148.32837 20588334
12.432881 41.111053 148.29941 20719147
12.4323 41.111118 148.27043 20523052
12.431756 41.110962 148.24146 20391725
12.431129 41.111305 148.21248 20129838
12.430514 41.111572 148.1835 20588078
12.429924 41.111694 148.15453 20457258
12.429321 41.111893 148.12555 20457005
12.428816 41.1115 148.09657 20587308
12.428309 41.111122 148.06758 20195118
12.427817 41.110657 148.03857 20390957
12.427287 41.110416 148.00958 20259883
12.426975 41.108868 147.98055 20194344
12.42659 41.107754 147.95151 19866663
12.426205 41.10664 147.92245 19800616
12.425702 41.106239 147.89343 19735080
12.424924 41.107494 147.86446 19865894
12.424265 41.108032 147.83546 19734823
12.423569 41.108788 147.80647 19669286
12.422935 41.109173 147.77745 19669797
12.422254 41.109852 147.74846 19669284
12.421668 41.10994 147.71942 19603747
12.421035 41.110329 147.69038 19669028
12.420532 41.109917 147.66132 19668770
12.419947 41.110012 147.63226 19603489
12.419327 41.110313 147.60321 19537954
12.418729 41.110481 147.57414 19537702
12.418025 41.11129 147.5451 19538213
12.417464 41.111237 147.51602 19538213
12.416761 41.112034 147.48697 19472678
12.416202 41.111973 147.45786 19603749
12.415569 41.112343 147.42877 19538212
12.415033 41.112137 147.39963 19668772
12.414472 41.112083 147.37048 19668774
12.414019 41.111366 147.34128 19669028
12.413411 41.111591 147.31213 19734313
12.412802 41.111816 147.28297 19734309
12.412184 41.112103 147.25381 19668773
12.466437 41.088314 151.32471 20981275
12.46571 41.088959 151.29361 20981532
12.46497 41.089684 151.26254 21177885
12.464252 41.090282 151.23155 21243422
12.463533 41.090889 151.20061 21309216
12.46291 41.090946 151.16983 21178398
12.462154 41.091778 151.1389 21374751
12.461506 41.091995 151.10815 21506332
12.460773 41.092709 151.07733 21572381
12.460171 41.092655 151.04672 21637915
12.459473 41.09317 151.01602 21638175
12.458727 41.093979 150.98531 21572641
12.458146 41.093811 150.95483 21572896
12.457507 41.093998 150.92432 21572641
12.45676 41.094826 150.89369 21046300
12.455988 41.09581 150.86307 20782871
12.455431 41.09552 150.83276 21703971
12.454743 41.096012 150.80232 21704224
12.454173 41.09581 150.77205 21704993
12.453554 41.095898 150.74176 21770274
12.452973 41.095768 150.71155 21770532
12.452367 41.095795 150.68132 21967655
12.451844 41.095325 150.65123 21771303
12.451262 41.095215 150.62109 21902121
12.450583 41.09568 150.59088 22098727
12.450097 41.095013 150.56091 21967397
12.44949 41.095058 150.53084 22033703
12.448895 41.095036 150.50081 22099497
12.448397 41.094448 150.4709 22034220
12.447909 41.093796 150.44102 22034220
12.447506 41.092648 150.41127 22099243
12.447042 41.091866 150.38147 21901865
12.446341 41.092499 150.35144 21771304
12.44565 41.093067 150.32146 21968173
12.444962 41.093636 150.2915 21902641
12.444283 41.094143 150.26158 21837358
12.443582 41.094795 150.23167 21772333
12.442965 41.09494 150.20186 21640490
12.442394 41.094818 150.17212 21640491
12.441743 41.095181 150.14233 21836843
12.441137 41.095272 150.11261 21705520
12.440485 41.09565 150.08287 21574194
12.439928 41.095455 150.05322 21574448
12.439191 41.09634 150.02345 21509168
12.438551 41.096657 149.99379 21509166
12.437875 41.097179 149.96411 21509167
12.437224 41.097565 149.93448 21509425
12.436525 41.098236 149.90483 21706034
12.435921 41.098351 149.87529 21575217
12.435282 41.098667 149.84573 21640755
12.434704 41.098629 149.81624 21444657
12.434089 41.098812 149.78674 21509169
12.433464 41.099056 149.75726 21575217
12.432826 41.09938 149.72778 21575218
12.4322 41.099636 149.69833 21574960
12.43154 41.100105 149.66888 21509682
12.430867 41.100651 149.63943 21443378
12.430279 41.100689 149.61006 21574452
12.429679 41.1008 149.5807 21443636
12.429068 41.100983 149.55136 21312308
12.428468 41.101101 149.52203 21312050
12.427845 41.101357 149.49271 21377072
12.427258 41.101402 149.46341 21442868
12.4266 41.101868 149.4341 21311792
12.42592 41.102478 149.40479 21115186
12.425216 41.103241 149.37547 21246000
12.424546 41.10379 149.34619 21180466
12.424023 41.103462 149.31702 21114930
12.423342 41.104084 149.28777 21114928
12.422782 41.103981 149.25859 21377073
12.422164 41.104233 149.22939 21311538
12.421629 41.103977 149.20026 21114415
12.421165 41.103298 149.17114 21375791
12.420763 41.102249 149.14207 20982575
12.419991 41.103436 149.11287 20982062
12.419219 41.104626 149.08366 20719917
12.418461 41.105736 149.05449 20850477
12.417737 41.106636 149.02533 20785200
12.416945 41.10796 148.99617 20654638
12.416317 41.10828 148.96709 20982060
12.415668 41.108742 148.93799 20851245
12.415067 41.108906 148.90894 20916526
12.414453 41.109154 148.87987 20785453
12.413769 41.109825 148.8508 20784686
12.413109 41.110352 148.82175 20785195
12.412403 41.111168 148.79269 20719660
12.411745 41.111687 148.76366 20654380
12.41111 41.112068 148.73463 20850732
12.410418 41.112801 148.70561 20981550
12.409903 41.112457 148.67662 20850990
12.409294 41.112686 148.64763 20457517
12.408781 41.112335 148.61865 20850480
12.408195 41.112419 148.58968 20719150
12.407731 41.111771 148.5607 20653612
12.407016 41.112648 148.53171 20587820
12.406374 41.113083 148.50273 20653612
12.405708 41.113663 148.47375 20718639
12.404962 41.114738 148.44478 20587825
12.404331 41.115105 148.41582 20654381
12.403656 41.115753 148.38687 20719145
12.403064 41.115883 148.35791 20784685
12.40246 41.116096 148.32896 20588077
12.401917 41.115936 148.3 20784685
12.401407 41.115566 148.27106 20587821
12.400818 41.115692 148.2421 20195374
12.400228 41.115822 148.21315 20195374
12.399579 41.116306 148.1842 20588079
12.398906 41.11694 148.15526 20391725
12.398317 41.117062 148.12631 20456750
12.397776 41.116898 148.09735 20522286
12.397282 41.116436 148.06839 20325935
12.396753 41.116188 148.03941 20325682
12.396308 41.115433 148.01044 20325676
12.39598 41.113964 147.98143 20259882
12.395606 41.11277 147.95241 19997735
12.395277 41.111301 147.92337 19800616
12.394668 41.111549 147.89439 19866405
12.393953 41.112438 147.86543 19735332
12.393284 41.113056 147.83646 19800614
12.392546 41.114086 147.80751 19669541
12.391949 41.114262 147.7785 19865893
12.391282 41.114861 147.74953 19735078
12.390675 41.115097 147.72052 19734565
12.390195 41.114548 147.69147 19734820
12.389517 41.115219 147.66248 19734818
12.388991 41.114952 147.63342 19538210
12.388325 41.115547 147.60442 19472421
12.387707 41.115852 147.57538 19538213
12.387053 41.116364 147.54636 19603747
12.386435 41.116669 147.51732 19538213
12.385817 41.116966 147.48827 19538211
12.38521 41.117199 147.4592 19669284
12.384639 41.117203 147.4301 19799844
12.384044 41.117359 147.40102 19734565
12.383497 41.117222 147.37189 19669541
12.382997 41.116791 147.34273 19669029
12.382448 41.116661 147.31357 19669286
12.38182 41.11702 147.28445 19669028
12.381144 41.117668 147.25536 19668772
12.437329 41.092636 151.32298 20981532
12.436579 41.093433 151.29189 21177882
12.435934 41.093601 151.26099 21309211
12.435171 41.09449 151.22993 21244189
12.434477 41.094959 151.19904 21243936
12.433771 41.095509 151.16817 21440798
12.433064 41.096069 151.13733 21506077
12.43237 41.096569 151.10654 21637660
12.431708 41.096863 151.07584 21572635
12.431082 41.096962 151.04523 21572382
12.43035 41.097694 151.0145 21573150
12.429758 41.097591 150.98399 21638432
12.429026 41.098335 150.95334 21573152
12.428456 41.09811 150.92294 21638690
12.427724 41.098869 150.89236 21572898
12.427024 41.099434 150.86185 21900577
12.426336 41.09993 150.83139 21835297
12.425731 41.099937 150.80109 21966627
12.425114 41.100018 150.77078 21639715
12.424532 41.099884 150.74055 21771047
12.423891 41.100121 150.71028 21836583
12.423331 41.099869 150.68015 21836584
12.422771 41.099617 150.65002 21836839
12.422178 41.099579 150.6199 21902634
12.421618 41.099342 150.58984 22033448
12.420955 41.099731 150.55969 22098979
12.42043 41.099289 150.52974 22099494
12.419858 41.099136 150.49976 21903144
12.419382 41.098404 150.46989 22033709
12.418892 41.097755 150.44005 21903403
12.41851 41.096466 150.41034 22230573
12.417997 41.09597 150.38051 21967149
12.417274 41.096748 150.35048 21836586
12.416609 41.097179 150.32054 21772076
12.415968 41.097469 150.29065 21837615
12.415222 41.098396 150.26068 21772334
12.414615 41.098488 150.23088 21837867
12.413952 41.098923 150.20105 21706540
12.413346 41.099014 150.1713 21771309
12.412728 41.099178 150.14156 21574957
12.412102 41.099407 150.11183 21771053
12.411496 41.099503 150.08215 21771052
12.410881 41.099667 150.05249 21639982
12.410217 41.100128 150.0228 21508910
12.409531 41.100727 149.99312 21639727
12.40888 41.101112 149.96349 21509167
12.408217 41.101574 149.93387 21771053
12.407521 41.102249 149.90424 21640751
12.406895 41.102501 149.87469 21575218
12.406279 41.102684 149.84517 21641012
12.405643 41.103004 149.81566 21575478
12.405064 41.102974 149.78621 21705779
12.404438 41.10323 149.75674 21574962
12.40379 41.103626 149.72728 21640498
12.40313 41.104095 149.69783 21509170
12.402554 41.104065 149.66846 21574963
12.401835 41.104897 149.63901 21509939
12.401294 41.104652 149.60968 21509426
12.400646 41.105057 149.58031 21443893
12.40006 41.105095 149.55099 21115701
12.399449 41.105282 149.52168 21443124
12.398838 41.105473 149.49239 21508145
12.398252 41.105522 149.46312 21311539
12.397655 41.105629 149.43385 21246000
12.396928 41.106537 149.40454 21180721
12.396285 41.106934 149.37529 21245999
12.395629 41.107414 149.34604 21049649
12.394974 41.107887 149.3168 21311794
12.394403 41.107853 149.28763 21508146
12.393772 41.108185 149.25844 21180211
12.393271 41.107719 149.22932 21180209
12.392735 41.107475 149.2002 21179183
12.392295 41.106651 149.17113 21113391
12.391678 41.106903 149.14198 21048112
12.390957 41.107796 149.11282 20916785
12.390178 41.109055 149.08363 20719918
12.389456 41.109962 149.05449 20654637
12.388606 41.111649 149.02531 20654636
12.38804 41.111607 148.99626 20719916
12.387379 41.112144 148.96718 20916269
12.386707 41.112747 148.9381 20851501
12.386048 41.113277 148.90904 20850987
12.385447 41.113457 148.88 20785452
12.384812 41.113838 148.85097 20784941
12.384038 41.115082 148.8219 20784684
12.383402 41.115475 148.79289 20653868
12.38271 41.116211 148.76387 20785195
12.38209 41.11652 148.73486 20850733
12.381398 41.117256 148.70587 20981804
12.380801 41.117416 148.6769 20850735
12.380288 41.117065 148.64793 20850990
12.379737 41.116943 148.61897 20719405
12.379201 41.11673 148.59003 20719662
12.378641 41.116669 148.56107 20654379
12.378035 41.116894 148.5321 20588078
12.377405 41.117256 148.50316 20718636
12.376637 41.118481 148.4742 20653358
12.376021 41.118767 148.44525 20522541
12.375289 41.119778 148.41631 20719404
12.374697 41.119919 148.38736 20849708
12.374011 41.120636 148.35843 20849967
12.373527 41.120117 148.3295 20784686
12.372888 41.120548 148.30057 20915248
12.372299 41.120674 148.27165 20718894
12.371825 41.120079 148.24271 20653104
12.371213 41.120354 148.21379 20587821
12.370518 41.121136 148.18486 20391724
12.369965 41.121037 148.15593 20522798
12.369331 41.121445 148.12701 20588076
12.368835 41.120995 148.09807 20391727
12.36826 41.12104 148.06914 20457261
12.367767 41.120571 148.04018 20456748
12.367367 41.11953 148.01122 20522283
12.366943 41.118629 147.98224 20259880
12.366566 41.117447 147.95325 19932203
12.36626 41.115818 147.92424 19735593
12.365662 41.115997 147.89528 19669288
12.36496 41.116829 147.86633 19800613
12.364224 41.117867 147.8374 19866148
12.36356 41.118465 147.80844 19931686
12.362894 41.119072 147.7795 19800614
12.36231 41.119171 147.7505 19931684
12.36168 41.119553 147.72153 19865895
12.361097 41.11964 147.69254 19669538
12.360537 41.119595 147.66353 19604004
12.359987 41.119469 147.63451 19472932
12.359312 41.120136 147.60553 19472932
12.358776 41.119934 147.57648 19538211
12.357997 41.121243 147.54753 19669026
12.357486 41.120888 147.51846 19734564
12.356822 41.121479 147.48946 19669028
12.356183 41.121918 147.46042 19604005
12.355612 41.121933 147.43135 19734565
12.355065 41.121788 147.40227 19669285
12.354542 41.121506 147.37315 19603493
12.353982 41.121445 147.34404 19603493
12.353436 41.1213 147.31491 19603493
12.352808 41.121658 147.28581 19603492
12.352192 41.121952 147.25671 19603236
12.405989 41.097824 151.32103 20981017
12.405241 41.098625 151.28995 21308701
12.404514 41.099297 151.25894 21375003
12.403835 41.099693 151.22804 21375003
12.403086 41.100525 151.19708 21506079
12.40244 41.100723 151.16632 21375006
12.401746 41.101227 151.13553 21440798
12.401076 41.101585 151.1048 21637663
12.400382 41.1021 151.07407 21572129
12.39963 41.102974 151.0433 21507615
12.399037 41.102875 151.0128 21573150
12.398388 41.103127 150.98224 21572896
12.397727 41.103462 150.95171 21572896
12.397009 41.104149 150.92113 21704226
12.396357 41.104427 150.89067 21704483
12.39572 41.10463 150.86028 21900833
12.395044 41.105064 150.82986 21901344
12.394452 41.105 150.79959 21639972
12.393801 41.105301 150.76926 21508901
12.393208 41.105251 150.73904 21967142
12.392602 41.105278 150.70885 22032934
12.392112 41.104607 150.67882 21902627
12.391472 41.104855 150.64864 21771817
12.390844 41.105034 150.61848 21837607
12.390262 41.104939 150.58842 21837863
12.389771 41.104279 150.5585 21968677
12.389108 41.104691 150.52841 22034215
12.388607 41.104103 150.49852 22034221
12.388013 41.104095 150.46857 22034219
12.387591 41.103027 150.43881 21968936
12.387102 41.102379 150.40901 22034471
12.386683 41.101315 150.37932 21837865
12.385984 41.101955 150.34933 21837355
12.385253 41.102818 150.31935 21575981
12.384602 41.10318 150.28947 21837615
12.383926 41.103695 150.2596 21837358
12.383242 41.104275 150.22975 21707052
12.382707 41.103935 150.20007 21771820
12.38201 41.104595 150.17026 21771310
12.381453 41.104404 150.14059 21771568
12.380825 41.104645 150.1109 21640748
12.380198 41.104885 150.08122 21706031
12.379665 41.104553 150.05165 21639727
12.378922 41.105515 150.02191 21574445
12.378263 41.105972 149.99226 21508910
12.377589 41.106514 149.96265 21640239
12.376905 41.107121 149.93303 21902127
12.37627 41.107437 149.90347 21706032
12.375667 41.107555 149.87398 21444402
12.374973 41.108231 149.84442 21706548
12.374396 41.1082 149.81497 21706547
12.373737 41.108673 149.78549 21640755
12.373217 41.108288 149.75613 21837105
12.372524 41.108974 149.72665 21574961
12.371913 41.109161 149.69727 21509424
12.37129 41.109425 149.66788 21509681
12.370575 41.11026 149.63844 21574961
12.370034 41.110016 149.60916 21509169
12.369423 41.110214 149.57983 21705522
12.368792 41.110538 149.55052 21574453
12.368239 41.110374 149.52127 21443378
12.367584 41.110855 149.49196 21443635
12.367022 41.110756 149.46274 21574448
12.366346 41.111366 149.43346 21246771
12.36568 41.111923 149.40419 21246257
12.365049 41.112255 149.37497 21311535
12.364431 41.112514 149.34576 21311538
12.363836 41.112633 149.31659 21115188
12.363208 41.112965 149.2874 21638964
12.362648 41.112865 149.25827 21311537
12.36208 41.112827 149.22914 21180466
12.36167 41.111794 149.2001 21113904
12.361078 41.111908 149.17099 21048368
12.360487 41.112015 149.14189 21112878
12.359712 41.113274 149.11272 21047086
12.358993 41.114182 149.08357 20719661
12.358252 41.115227 149.05446 20589100
12.357501 41.116337 149.02533 20588588
12.356762 41.117378 148.99623 20719147
12.35616 41.117565 148.96719 20915758
12.355433 41.11853 148.93813 20785196
12.354915 41.118198 148.90913 20719918
12.354293 41.118519 148.88013 20850220
12.353602 41.119263 148.85109 20850477
12.352923 41.119938 148.82208 20849966
12.352188 41.120972 148.79306 20784939
12.351521 41.121574 148.76407 20719660
12.350937 41.121662 148.73511 20981546
12.350248 41.122406 148.70613 21047339
12.349653 41.122566 148.67719 20981806
12.349106 41.122433 148.64824 20785708
12.348534 41.122448 148.61931 20916015
12.348079 41.121735 148.59038 20915758
12.34752 41.12167 148.56145 20719149
12.346834 41.122402 148.53252 20850222
12.346139 41.123199 148.50357 20849963
12.345501 41.123634 148.47466 20588335
12.344863 41.124073 148.44572 20653614
12.344147 41.125 148.41681 20654123
12.343511 41.125431 148.38789 20719148
12.342909 41.125641 148.35899 20784689
12.342238 41.126289 148.33008 20718895
12.341765 41.125694 148.30118 20588335
12.341177 41.125832 148.27228 20391982
12.340611 41.12582 148.24338 20784430
12.340013 41.126015 148.21448 20588074
12.339345 41.126648 148.18558 20588330
12.33877 41.126698 148.15668 20653613
12.338286 41.126167 148.12776 20195373
12.337631 41.126724 148.09886 20195373
12.337127 41.126335 148.06995 20391468
12.336632 41.125874 148.04102 20325933
12.33623 41.124832 148.01207 20456235
12.335795 41.124001 147.98312 20194346
12.33552 41.122162 147.95413 20194091
12.335073 41.121403 147.92517 19997480
12.334477 41.121582 147.89624 19931690
12.33377 41.122471 147.86732 19800615
12.333117 41.123009 147.83839 19800614
12.332397 41.123978 147.80948 19866403
12.33177 41.124359 147.78055 20062756
12.331154 41.124672 147.7516 19866150
12.330525 41.125053 147.72266 19865892
12.330046 41.124504 147.69365 19800356
12.329362 41.125244 147.6647 19603749
12.328816 41.125107 147.63571 19538725
12.32819 41.125484 147.60674 19604004
12.327575 41.125786 147.57774 19603494
12.32696 41.126087 147.54877 19800357
12.326197 41.127327 147.51982 19603236
12.325627 41.127338 147.4908 19603491
12.325139 41.126835 147.46173 19538213
12.324503 41.127274 147.43271 19669029
12.323935 41.127277 147.40366 19669283
12.323388 41.127136 147.37459 19603750
12.322831 41.127068 147.3455 19735077
12.32224 41.127213 147.31642 19865633
12.321671 41.127216 147.28732 19799844
12.32108 41.127361 147.25822 19799844
12.37718 41.101978 151.3194 21112092
12.376492 41.102432 151.28842 21308954
12.375826 41.102753 151.25752 21374236
12.375034 41.103859 151.22649 21243417
12.374388 41.104061 151.19569 21375004
12.373652 41.104836 151.16481 21309468
12.372971 41.105274 151.13405 21375262
12.372301 41.105637 151.10335 21572126
12.371618 41.106087 151.07266 21506849
12.370972 41.106331 151.04205 21507360
12.370289 41.106796 151.01144 21507360
12.369675 41.106842 150.98096 21703967
12.368992 41.107315 150.95041 21769249
12.368309 41.107803 150.91989 21638432
12.36758 41.108574 150.88936 21770273
12.367 41.108433 150.85905 21901090
12.366291 41.109085 150.82861 21835808
12.365665 41.109238 150.79831 21639715
12.365049 41.109325 150.76805 21705761
12.364467 41.109215 150.73787 21967394
12.363895 41.109032 150.70773 21967910
12.363279 41.109138 150.67757 21902378
12.362743 41.108753 150.64754 21902889
12.362082 41.109146 150.61737 21902886
12.361555 41.108707 150.5874 22033960
12.360929 41.108894 150.55734 22033704
12.360415 41.108383 150.52744 21968678
12.359809 41.108452 150.49745 21968682
12.359249 41.108231 150.46754 22099494
12.358804 41.107304 150.43781 22100007
12.358358 41.106377 150.40808 21903655
12.357822 41.106026 150.37827 21706285
12.357196 41.106243 150.34839 21837356
12.356489 41.10696 150.31845 21837611
12.355793 41.10762 150.28854 21837100
12.355179 41.107769 150.25876 21772077
12.354551 41.108002 150.22897 21772588
12.353902 41.108376 150.1992 21772590
12.353264 41.108688 150.16946 21640751
12.352682 41.108646 150.1398 21902638
12.352092 41.108669 150.11015 21706289
12.351466 41.10891 150.08051 21640495
12.350841 41.109158 150.05087 21836847
12.350169 41.109692 150.02121 21575212
12.349486 41.110302 149.99158 21508909
12.348827 41.110771 149.96198 21770797
12.348112 41.111595 149.93236 21836589
12.347533 41.111561 149.90288 21706033
12.346795 41.112534 149.87329 21575218
12.34624 41.112362 149.84386 21641266
12.345617 41.112617 149.81441 21575216
12.345028 41.112663 149.78499 21575218
12.344394 41.112995 149.75557 21574962
12.343794 41.113113 149.72618 21443632
12.343115 41.113739 149.69676 21509676
12.34255 41.11364 149.66743 21444143
12.341862 41.11433 149.63805 21902129
12.34132 41.11409 149.60878 21509682
12.340665 41.114571 149.57944 21509424
12.340079 41.114624 149.55017 21443125
12.339437 41.115025 149.52089 21443378
12.338863 41.115005 149.49165 21443631
12.338257 41.115192 149.46242 21574194
12.337568 41.115894 149.43315 21246516
12.336997 41.115864 149.40396 21312048
12.3363 41.116631 149.37473 21377074
12.335694 41.116821 149.34555 21377329
12.335044 41.117302 149.31636 21115443
12.334451 41.117416 149.28722 21246259
12.333926 41.117104 149.25813 21181230
12.333309 41.117371 149.229 21180978
12.332809 41.116901 149.19994 21246003
12.332321 41.116364 149.1709 21179441
12.331718 41.116554 149.14182 20982316
12.330978 41.117607 149.11267 20785200
12.330185 41.119011 149.08353 20785199
12.329481 41.119843 149.05443 20654379
12.328756 41.120815 149.02534 20850732
12.328075 41.121502 148.99629 20784942
12.327363 41.122398 148.96724 20915504
12.326763 41.122581 148.93823 20850732
12.326121 41.123039 148.90923 20851501
12.32559 41.122784 148.88025 20981549
12.324892 41.1236 148.85124 20916013
12.324249 41.124062 148.82227 20587822
12.323517 41.125095 148.79327 20653613
12.322829 41.125847 148.7643 20587817
12.322166 41.126442 148.73534 20850732
12.321481 41.127182 148.70638 21047084
12.320921 41.127129 148.67746 20785708
12.320361 41.127075 148.64853 20719916
12.319858 41.126656 148.61963 20981807
12.319221 41.127098 148.59071 20981294
12.318788 41.126236 148.56181 20784686
12.318184 41.126461 148.53291 20784941
12.317468 41.127411 148.50398 20653612
12.31681 41.127983 148.47508 20588335
12.316117 41.128784 148.44618 20653611
12.31538 41.129864 148.41728 20653613
12.314825 41.129791 148.3884 20588844
12.314259 41.129784 148.35951 20784686
12.313614 41.130287 148.33063 20915755
12.313107 41.129906 148.30174 20522541
12.312463 41.130398 148.27286 20522795
12.311932 41.130169 148.24397 20653615
12.311379 41.130081 148.21509 20391978
12.310714 41.130714 148.18622 20587820
12.310117 41.130913 148.15733 20521771
12.309555 41.130882 148.12845 20326444
12.308993 41.130859 148.09956 20522285
12.308453 41.130692 148.07068 20325677
12.30796 41.130222 148.04176 20260396
12.307556 41.129181 148.01285 20456746
12.30712 41.128349 147.98392 19998251
12.306739 41.127163 147.95497 19997994
12.306314 41.126263 147.92603 19931944
12.305755 41.126213 147.89711 20062759
12.30507 41.126976 147.86821 19997224
12.304399 41.127647 147.83931 19931431
12.303704 41.128471 147.81042 20062756
12.303113 41.128635 147.78149 19931688
12.302442 41.129311 147.75258 19931686
12.301907 41.129112 147.72362 19800613
12.30127 41.129562 147.6947 19734822
12.300677 41.12973 147.66574 19735078
12.30012 41.129673 147.63678 19669283
12.299485 41.130119 147.60783 19734821
12.298905 41.130199 147.57886 19669027
12.298248 41.130787 147.5499 19734565
12.297636 41.131081 147.52092 19799845
12.296956 41.131805 147.49197 19734564
12.296354 41.132034 147.46298 19603235
12.295798 41.131966 147.43394 19603747
12.295163 41.132401 147.40495 19603748
12.294629 41.132195 147.37589 19603749
12.294141 41.131687 147.34679 19799846
12.293529 41.131973 147.31775 19734822
12.292917 41.132259 147.2887 19800102
12.292372 41.132114 147.2596 19996453
12.34602 41.106625 151.3176 21177886
12.345311 41.10722 151.28662 21308957
12.344601 41.107834 151.25568 21636380
12.343912 41.108311 151.22481 21506075
12.343155 41.10923 151.19388 21178650
12.3425 41.109509 151.16315 21375006
12.34182 41.109955 151.1324 21505824
12.341129 41.110466 151.10168 21572126
12.34045 41.110916 151.07103 21572124
12.339871 41.110741 151.04054 21638171
12.339134 41.111568 151.00987 21704222
12.338521 41.111618 150.9794 21835551
12.337851 41.11203 150.9489 21573152
12.337125 41.112804 150.91835 21442592
12.336511 41.112873 150.88799 21639200
12.335862 41.113163 150.85762 21770273
12.335192 41.113598 150.82724 21836064
12.334565 41.113762 150.79697 21770783
12.333983 41.113647 150.76677 21836321
12.333346 41.113888 150.73654 21967648
12.332742 41.113926 150.70639 21836321
12.332183 41.113678 150.67632 21967912
12.33159 41.113655 150.64622 21902630
12.330975 41.113773 150.61615 22034469
12.330404 41.113609 150.58615 22034212
12.329834 41.113449 150.55617 22033704
12.329273 41.113235 150.52625 21903147
12.328771 41.112656 150.4964 22033965
12.3282 41.112511 150.46651 21968682
12.327731 41.111729 150.43675 22100011
12.327284 41.110809 150.40704 21968173
12.326737 41.110527 150.37726 21639464
12.326034 41.111244 150.34731 21837355
12.325374 41.111687 150.31744 21968172
12.324736 41.111992 150.28763 21837353
12.324121 41.112152 150.25786 21771310
12.323462 41.112602 150.22806 21968430
12.322826 41.112907 150.19832 21772590
12.322224 41.113007 150.16864 21706542
12.321588 41.113319 150.13895 21771818
12.320986 41.113422 150.10931 21837359
12.320361 41.11367 150.07968 21706031
12.31976 41.113773 150.05009 21706031
12.319091 41.114311 150.02046 21509421
12.318388 41.11507 149.99083 21443372
12.31781 41.115032 149.96132 21836333
12.317075 41.116009 149.9317 21640752
12.316452 41.116264 149.90221 21837360
12.315796 41.116737 149.8727 21640752
12.315196 41.116856 149.84326 21640754
12.314596 41.116978 149.81384 21706802
12.31392 41.117592 149.78439 21706547
12.313354 41.117504 149.75504 21640244
12.312733 41.117767 149.72566 21509425
12.312113 41.118027 149.6963 21705776
12.311459 41.118511 149.66693 21902134
12.310895 41.11842 149.63765 21770290
12.310242 41.1189 149.60832 21639476
12.309612 41.119236 149.57904 21574448
12.309039 41.119213 149.54979 21573938
12.308455 41.119263 149.52057 21705271
12.307815 41.119675 149.49132 21508913
12.307277 41.119434 149.46214 21508916
12.306603 41.120064 149.43291 21312052
12.305987 41.120327 149.40372 21245746
12.305281 41.121178 149.37448 21312047
12.30471 41.121155 149.34535 21246258
12.304118 41.121269 149.31622 21246515
12.303493 41.121605 149.28708 21311794
12.302946 41.121437 149.258 21246259
12.302299 41.121918 149.22888 21311795
12.301854 41.121094 149.19987 21311283
12.301287 41.121063 149.17081 21179696
12.300673 41.12133 149.14174 20916781
12.299962 41.122231 149.11264 20719662
12.29917 41.123642 149.08351 20784943
12.29846 41.124546 149.05444 20850220
12.297738 41.125523 149.02538 20719404
12.297117 41.125847 148.99637 20785197
12.296418 41.126678 148.96733 20851245
12.295764 41.127224 148.93834 20982315
12.295157 41.127464 148.90936 20916527
12.29456 41.127647 148.88039 20786222
12.293876 41.128395 148.85141 20850732
12.293235 41.12886 148.82245 20784685
12.29254 41.129677 148.79349 20784685
12.291811 41.130714 148.76453 20785196
12.291141 41.131378 148.73558 20916270
12.290502 41.131836 148.70667 20916270
12.28992 41.131931 148.67775 20785454
12.289373 41.131798 148.64886 20785710
12.288871 41.131382 148.61998 20916016
12.288337 41.131172 148.59109 20784940
12.287766 41.131187 148.56221 20718893
12.287154 41.131485 148.53333 20653613
12.286498 41.132069 148.50443 20391977
12.28582 41.132793 148.47554 20522541
12.285198 41.133148 148.44667 20457518
12.284498 41.134026 148.4178 20653614
12.283833 41.13467 148.38893 20523053
12.283301 41.134449 148.36006 20850220
12.282638 41.135086 148.33121 20588588
12.28214 41.134647 148.30235 20653870
12.281599 41.134487 148.27348 20653613
12.281035 41.134476 148.24463 20653870
12.280439 41.134674 148.21576 20588075
12.279844 41.134872 148.1869 20522541
12.279148 41.135723 148.15805 20653613
12.278622 41.135479 148.1292 20523306
12.278061 41.135452 148.10033 20457005
12.277577 41.134918 148.07146 20325933
12.277018 41.134884 148.04259 20522027
12.27658 41.13406 148.01369 20456238
12.276187 41.132942 147.98477 20259883
12.275838 41.131535 147.95584 20128554
12.2754 41.130707 147.92693 20062767
12.274841 41.130665 147.89803 20128299
12.274084 41.13192 147.86917 20063018
12.273471 41.132236 147.84029 20062760
12.272836 41.13269 147.81139 19931690
12.272146 41.133507 147.78252 19866152
12.271555 41.133678 147.7536 19735334
12.270888 41.134346 147.72472 19735333
12.270365 41.134079 147.69577 19735078
12.269753 41.13438 147.66685 19669540
12.26912 41.134827 147.63794 19734820
12.268598 41.134552 147.60896 19865635
12.267997 41.134781 147.58003 19734818
12.267278 41.135792 147.55113 19734563
12.266666 41.136093 147.52217 19734820
12.266033 41.136532 147.49323 19800100
12.26549 41.136391 147.46422 19734306
12.264848 41.136894 147.43526 19734307
12.264226 41.13726 147.40628 19865380
12.263771 41.136536 147.3772 19865381
12.263216 41.136463 147.34816 19734818
12.262617 41.136677 147.31914 19669284
12.262074 41.136528 147.29007 19800105
12.261442 41.136963 147.26105 19734310
12.316678 41.111473 151.31581 21046557
12.315992 41.111938 151.2849 21439264
12.315305 41.112419 151.25401 21374745
12.314585 41.113113 151.22311 21440283
12.313919 41.113472 151.19234 21113627
12.313154 41.114464 151.16145 21309725
12.312497 41.114773 151.13077 21571869
12.311886 41.114792 151.10019 21637658
12.311219 41.115177 151.06956 21441819
12.310507 41.115856 151.03891 21769503
12.309838 41.116264 151.00836 21703711
12.309236 41.116249 150.97794 21704225
12.308578 41.116592 150.94746 21638688
12.307976 41.116589 150.91711 21638690
12.307228 41.117523 150.88658 21638946
12.30667 41.117249 150.85635 21704738
12.305912 41.118259 150.82588 21901598
12.305321 41.118206 150.79567 21902367
12.304706 41.118305 150.76546 22032931
12.304135 41.118126 150.73534 22033698
12.303488 41.118446 150.70514 21771559
12.302916 41.118282 150.67508 21968168
12.302391 41.117828 150.6451 21837350
12.301764 41.118027 150.61502 22033701
12.301217 41.117722 150.58507 22034213
12.300601 41.117859 150.55507 21837866
12.300042 41.117638 150.52516 21837610
12.299539 41.117065 150.49533 22099754
12.298979 41.116852 150.46548 22033960
12.298464 41.116356 150.4357 22033706
12.297949 41.115868 150.40593 22033194
12.297578 41.114452 150.37636 21574184
12.296797 41.115681 150.34634 21706027
12.296151 41.116051 150.31651 21967913
12.295527 41.11628 150.28673 21902125
12.29488 41.116657 150.25696 22033200
12.294254 41.116898 150.22722 21836589
12.293632 41.117134 150.19751 21772334
12.293006 41.117386 150.16783 21772335
12.292427 41.11734 150.13821 21772334
12.291792 41.117664 150.10857 21575469
12.291224 41.117561 150.07901 21771309
12.290589 41.117882 150.04941 21640749
12.28989 41.118629 150.01976 21575212
12.289223 41.119179 149.99019 21836589
12.288589 41.119507 149.96065 21836334
12.287912 41.120121 149.93111 21836846
12.287225 41.120811 149.90157 21902638
12.286614 41.121002 149.87212 21640753
12.285982 41.121338 149.84268 21771312
12.285383 41.121464 149.81328 21837614
12.284762 41.121731 149.78389 21837360
12.284164 41.121849 149.75453 21706542
12.283567 41.121967 149.72519 21509170
12.282937 41.122311 149.69585 21640247
12.282307 41.12265 149.66652 21640246
12.281623 41.123348 149.63718 21836597
12.281048 41.123329 149.60793 21639732
12.280431 41.1236 149.57866 21377839
12.279935 41.123077 149.5495 21705524
12.279285 41.123558 149.52023 21574191
12.278657 41.123909 149.49101 21443636
12.27803 41.124241 149.46181 21312307
12.277427 41.124435 149.43263 21312052
12.276789 41.124851 149.40346 21180463
12.276153 41.125259 149.37428 21311537
12.275515 41.125679 149.34514 21311795
12.2749 41.125946 149.31601 21246514
12.274332 41.125919 149.28693 21312049
12.273764 41.125893 149.25786 21311791
12.27314 41.126236 149.22876 21377073
12.272628 41.125847 149.19974 21376563
12.272082 41.125679 149.17072 21310512
12.271504 41.125725 149.14168 20917040
12.270784 41.126705 149.11259 20916271
12.27002 41.127972 149.08351 20719916
12.269322 41.128807 149.05446 20850477
12.268526 41.130287 149.02539 20851244
12.267907 41.130615 148.9964 20916270
12.267265 41.131088 148.96741 20916524
12.266582 41.131844 148.93842 20982320
12.265997 41.13195 148.90947 20917038
12.265423 41.131989 148.88054 20719918
12.264751 41.132668 148.85158 20654893
12.264036 41.133633 148.82262 20785197
12.263354 41.134384 148.79367 20719661
12.262674 41.135128 148.76474 20785454
12.261971 41.136021 148.73582 20981294
12.26139 41.136116 148.70692 20654637
12.260788 41.136345 148.67804 20720170
12.260296 41.13586 148.64919 20785708
12.259661 41.136311 148.6203 20916012
12.259181 41.135746 148.59145 20719660
12.258669 41.135391 148.56259 20785196
12.257982 41.136192 148.53371 20719403
12.257359 41.136566 148.50485 20522798
12.256717 41.137074 148.47598 20588074
12.256052 41.13773 148.44713 20326187
12.255333 41.138741 148.41827 20719149
12.254736 41.138954 148.38943 20719150
12.254095 41.13945 148.3606 20719406
12.253521 41.139519 148.33176 20588333
12.253024 41.139069 148.30292 20719406
12.252396 41.139492 148.27408 20719147
12.251909 41.138977 148.24524 20653866
12.251293 41.139324 148.2164 20588077
12.250744 41.139225 148.18756 20391725
12.250094 41.13979 148.15872 20522536
12.249512 41.139908 148.12988 20718891
12.248909 41.140167 148.10106 20457006
12.248503 41.139122 148.07219 20522540
12.247932 41.139168 148.04333 20522029
12.24746 41.138557 148.01447 20521774
12.247076 41.137371 147.98558 20390955
12.246628 41.136604 147.9567 20259628
12.246308 41.134983 147.92776 20128298
12.245752 41.134933 147.8989 19932456
12.244944 41.136551 147.87007 20128296
12.244365 41.13665 147.8412 20128038
12.243677 41.137474 147.81235 19866408
12.243001 41.138218 147.78348 19866149
12.242434 41.138241 147.75459 19931941
12.241747 41.139057 147.72572 19735077
12.24118 41.139072 147.69682 19669540
12.240668 41.138721 147.66789 19538469
12.240081 41.138882 147.63898 19734819
12.239505 41.138958 147.61006 19930916
12.238916 41.139118 147.58113 19930915
12.238189 41.140205 147.55225 19669029
12.237601 41.140358 147.52332 19734307
12.236917 41.141151 147.49442 19603490
12.236352 41.141159 147.46544 19604002
12.235809 41.14101 147.43645 19800101
12.235105 41.141949 147.40753 19800100
12.234723 41.140728 147.37845 19669027
12.234116 41.141006 147.34946 19734565
12.233508 41.141289 147.32045 19669032
12.232954 41.141216 147.29141 19800100
12.232315 41.141708 147.26242 19669028
12.285793 41.116028 151.31409 21373981
12.285098 41.116566 151.28317 21374237
12.284435 41.116905 151.25235 21178650
12.283663 41.117958 151.22139 21244185
12.282997 41.118324 151.19064 21375260
12.282278 41.119049 151.15984 21506331
12.281569 41.119705 151.1291 21572122
12.280937 41.119873 151.09851 21507099
12.280293 41.120125 151.06795 21769756
12.279648 41.120392 151.03741 21835293
12.279024 41.120518 151.00694 21704482
12.278347 41.121002 150.97643 21769502
12.277691 41.121349 150.94598 21703970
12.277012 41.121853 150.91554 21638433
12.2764 41.121929 150.88522 21835554
12.275667 41.122791 150.85477 21704481
12.275032 41.123024 150.82449 21901858
12.27444 41.122986 150.7943 21967647
12.273794 41.123295 150.76407 22033186
12.273234 41.123051 150.73398 21771558
12.272611 41.123234 150.70384 21771042
12.272006 41.123287 150.67375 21967654
12.271403 41.123341 150.64371 22099240
12.27092 41.122612 150.61383 22165033
12.270295 41.122818 150.58382 21771813
12.269714 41.122738 150.55386 21968682
12.269156 41.122517 150.52399 22165032
12.268619 41.122162 150.49414 22099751
12.268124 41.121529 150.46439 22165031
12.267553 41.121399 150.43457 21903145
12.267115 41.120407 150.40492 21837355
12.266676 41.119423 150.37529 21639977
12.265986 41.120079 150.3454 21836588
12.265265 41.120956 150.31551 21967147
12.264642 41.121193 150.28575 21967661
12.263974 41.121723 150.25597 22033454
12.263406 41.121605 150.2263 21967663
12.262836 41.121494 150.19669 21641260
12.262194 41.121876 150.16699 21772334
12.261559 41.1222 150.13734 21772589
12.26096 41.122307 150.10776 21968174
12.260358 41.122425 150.07819 22033451
12.259781 41.122387 150.04866 21771567
12.259083 41.123146 150.01904 21508908
12.25843 41.123619 149.9895 21705771
12.257753 41.124245 149.95995 21836847
12.257078 41.124863 149.93042 21836849
12.256403 41.125488 149.90092 21836849
12.255816 41.125542 149.87152 21771821
12.255142 41.12616 149.84206 21574960
12.254523 41.126427 149.81267 21771564
12.253981 41.126194 149.78336 21706032
12.253394 41.126251 149.75403 21771569
12.252733 41.126801 149.72467 21509681
12.252104 41.127151 149.69534 21509168
12.251508 41.127274 149.66606 21509171
12.250859 41.127758 149.63676 21508915
12.250274 41.127823 149.60753 21574704
12.249637 41.128231 149.57826 21443633
12.24902 41.12851 149.54904 21247029
12.248481 41.128277 149.51988 21377588
12.247866 41.128548 149.49069 21442867
12.247317 41.12838 149.46156 21246257
12.246627 41.129158 149.43234 21180207
12.245959 41.129784 149.40317 21245742
12.245357 41.12999 149.37404 21311282
12.2447 41.13055 149.34491 21246000
12.244176 41.130238 149.31586 21311536
12.243564 41.130508 149.28677 21245233
12.242951 41.130779 149.25769 21441842
12.242416 41.130539 149.22867 21376301
12.241861 41.13044 149.19965 21311022
12.241305 41.130348 149.17064 21179437
12.240675 41.130753 149.1416 20917038
12.240033 41.131233 149.11258 20850735
12.239273 41.132504 149.08351 20850734
12.23847 41.13406 149.05443 20916524
12.237798 41.134754 149.02544 20982317
12.237147 41.1353 148.99644 20917037
12.236499 41.135834 148.96748 20720686
12.235904 41.136021 148.93854 20916784
12.235244 41.136639 148.90959 20917038
12.234651 41.136814 148.88068 20785454
12.234015 41.13728 148.85175 20589102
12.233313 41.13818 148.82281 20719660
12.232602 41.139137 148.79388 20654125
12.231913 41.139961 148.76498 20784942
12.231321 41.140137 148.7361 20785198
12.230666 41.140732 148.70721 20916524
12.230021 41.141266 148.67834 20719916
12.229476 41.141132 148.64949 20981804
12.228941 41.140934 148.62065 20785198
12.228471 41.140301 148.59183 20588844
12.227839 41.140747 148.56297 20719659
12.227242 41.140961 148.53413 20457517
12.226686 41.140903 148.50529 20719148
12.225962 41.141983 148.47644 20588331
12.225309 41.14257 148.44762 20784426
12.224649 41.143219 148.41878 20588076
12.224064 41.143364 148.38997 20718894
12.223426 41.143864 148.36115 20588076
12.222906 41.14357 148.33232 20849965
12.222322 41.143707 148.30351 20719150
12.221696 41.144131 148.2747 20849959
12.221157 41.143974 148.24588 20522283
12.220607 41.143883 148.21707 20718380
12.220047 41.14386 148.18825 20391466
12.219391 41.144485 148.15944 20653098
12.218821 41.144535 148.13062 20522284
12.218327 41.144073 148.10179 20652843
12.217758 41.144115 148.07297 20521772
12.217263 41.143654 148.04413 20259884
12.216824 41.14283 148.01529 20390700
12.216363 41.142143 147.98643 20128810
12.215923 41.141308 147.95757 20324906
12.215561 41.139961 147.92867 20128554
12.215057 41.139565 147.89981 19931943
12.214318 41.140751 147.87099 20128295
12.213581 41.141926 147.84218 19996967
12.212887 41.142815 147.81335 19997221
12.212266 41.143204 147.7845 19866149
12.21169 41.143295 147.75563 19735330
12.211103 41.143456 147.72676 19865636
12.210464 41.143974 147.69791 19735077
12.209985 41.14341 147.66899 19669284
12.209409 41.143497 147.64009 19800100
12.20877 41.144009 147.61122 19669284
12.208152 41.144382 147.58232 19734820
12.207502 41.144966 147.55344 19669282
12.206906 41.145187 147.52454 19669285
12.20628 41.145615 147.49562 19603747
12.20561 41.146339 147.46674 19603491
12.205067 41.146198 147.43776 19734820
12.204494 41.146267 147.40881 19800096
12.204005 41.145756 147.37979 19734561
12.203422 41.145897 147.35081 19669026
12.202826 41.146107 147.32184 19800100
12.202273 41.146034 147.29282 19799846
12.201669 41.146305 147.26382 19865639
12.256948 41.120159 151.31253 21243422
12.256274 41.120571 151.28168 21243931
12.255527 41.121471 151.25073 21244187
12.254907 41.121552 151.22003 21440541
12.254137 41.122623 151.18912 21506330
12.253421 41.123341 151.15836 21505819
12.252734 41.123871 151.12766 21636891
12.252112 41.123978 151.09711 21572125
12.251502 41.12402 151.0666 21637920
12.250804 41.124641 151.03601 21769501
12.250204 41.124626 151.0056 21637918
12.249528 41.125114 150.97511 21703713
12.248894 41.125328 150.94472 21637919
12.24824 41.125683 150.91432 21769505
12.247551 41.126266 150.88391 21704223
12.246906 41.126575 150.85361 21901090
12.246315 41.126522 150.82341 21705249
12.245617 41.127193 150.79309 22032671
