# .PCD v0.7 - Point Cloud Data file format
VERSION 0.7
FIELDS x y z
SIZE 4 4 4
TYPE F F F
COUNT 1 1 1
WIDTH 1542
HEIGHT 1
VIEWPOINT 0 0 0 1 0 0 0
POINTS 1542
DATA ascii
0.0097909998 0.047150001 -0.28659999
-0.4348 0.52359998 0.31549999
-0.41589999 -0.35600001 0.2181
0.243 0.67250001 0.39359999
-0.4086 -0.759 0.30039999
-0.22319999 0.047150001 -0.17460001
0.32789999 0.047150001 -0.1566
-0.3308 0.046259999 -0.13429999
0.39309999 0.69959998 0.3901
-0.4201 0.70899999 0.39250001
-0.3211 -0.01148 0.1971
-0.36660001 0.046259999 -0.02671
-0.4294 0.46880001 0.28560001
0.43419999 0.65679997 0.3892
-0.061969999 0.64639997 0.3906
-0.1605 0.046259999 0.076350003
0.09048 0.59619999 0.35749999
0.12630001 -0.57709998 0.2683
-0.4278 -0.722 0.3134
0.41749999 -0.40900001 -0.2325
0.31020001 0.047150001 -0.28240001
-0.38209999 0.73210001 0.41119999
-0.3804 0.044819999 -0.17910001
-0.40549999 -0.0021500001 -0.30860001
0.26969999 0.001463 -0.54400003
-0.39660001 0.63099998 0.3599
0.1487 0.55119997 0.331
0.4359 -0.3064 0.1884
0.32339999 0.046259999 -0.50169998
0.1177 0.83130002 0.46129999
0.050110001 -0.55650002 0.26210001
-0.1754 0.82450002 0.47749999
-0.1787 0.047150001 -0.49259999
-0.39500001 0.5618 0.324
-0.2726 0.047150001 -0.38929999
-0.4084 0.47780001 0.2735
0.43529999 -0.78149998 0.32609999
-0.43540001 -0.58420002 0.26449999
-0.14219999 -0.58209997 -0.30360001
-0.4348 -0.73559999 -0.38839999
-0.3899 0.027079999 -0.03119
0.0348 -0.01081 0.2013
-0.435 -0.74379998 0.3184
-0.21430001 0.02086 -0.53640002
-0.38 -0.56300002 0.2476
-0.1426 0.61610001 0.37630001
-0.39300001 0.02118 -0.1208
0.29730001 0.79530001 0.46610001
-0.2412 0.047150001 -0.41190001
0.17560001 0.53490001 0.32269999
-0.43540001 0.4867 0.28690001
-0.2367 -0.57359999 -0.30610001
-0.066550002 0.7414 0.43709999
-0.04888 0.0053440002 0.19419999
0.41060001 -0.50379997 -0.285
0.1621 0.68080002 0.40529999
0.1039 0.53909999 0.32530001
-0.4086 -0.44080001 0.2287
-0.42070001 0.75150001 0.419
-0.1441 -0.55620003 0.26710001
-0.4181 -0.66689998 -0.34940001
-0.1874 -0.01007 -0.55250001
-0.41800001 -0.17020001 0.1707
-0.29480001 0.565 0.3513
-0.2233 0.65539998 0.3994
-0.38999999 0.78359997 0.4562
0.009722 0.66420001 0.3996
0.44909999 -0.033039998 0.03602
-0.27270001 0.75730002 0.4298
0.3434 0.73760003 0.41710001
0.2383 -0.57050002 -0.32159999
-0.12909999 -0.5801 0.2579
-0.147 0.045529999 -0.51569998
0.1934 0.73119998 0.42460001
0.44859999 -0.019610001 0.089790002
-0.40689999 0.001748 -0.0034950001
-0.2726 0.58810002 0.3637
-0.43470001 0.38170001 0.2101
0.3281 0.7723 0.43279999
0.40880001 -0.1988 0.16599999
0.3378 0.02086 0.1779
0.045620002 0.046259999 -0.22390001
0.23379999 0.046259999 -0.084959999
-0.3039 0.046259999 -0.1656
-0.34869999 0.046259999 -0.3628
0.42019999 -0.39770001 0.2017
0.032189999 -0.5819 -0.32800001
0.1196 0.55150002 0.33180001
-0.4355 -0.2974 -0.1612
0.22040001 0.046259999 -0.49720001
-0.1426 0.046259999 -0.40759999
0.1621 0.047150001 -0.1163
0.23379999 0.046259999 -0.30000001
0.0053099999 0.047150001 -0.37130001
0.25170001 0.046259999 -0.3224
-0.039500002 0.79519999 0.4429
0.3549 0.025769999 -0.50959998
-0.1649 0.58679998 0.3583
0.38139999 0.0438 -0.04315
0.29260001 0.7647 0.43149999
0.4235 -0.34119999 0.2146
-0.05294 0.047150001 -0.0042940001
0.023220001 0.046259999 0.044980001
-0.030549999 0.046259999 -0.46579999
-0.2904 -0.5837 -0.32859999
-0.396 0.01305 -0.38519999
0.20990001 0.045639999 0.1726
0.23819999 0.047150001 -0.44749999
-0.093269996 0.047150001 -0.040139999
-0.03951 0.046259999 -0.12530001
0.18000001 0.046259999 -0.33140001
-0.1963 0.046259999 -0.3673
0.090429999 0.046259999 -0.28659999
0.05012 0.047150001 -0.32690001
-0.2322 0.046259999 0.1391
-0.16500001 0.046259999 -0.22830001
0.27410001 0.046259999 -0.071520001
0.1175 0.67129999 0.3989
0.4084 -0.01044 -0.1805
-0.061900001 0.047150001 -0.30450001
0.25170001 0.046259999 -0.044640001
0.23379999 0.046259999 -0.33590001
0.13079999 0.0233 -0.53219998
0.1442 0.046259999 -0.2597
0.22040001 0.046259999 -0.1522
0.1487 0.046259999 -0.06256
0.2024 0.046259999 -0.1656
0.17110001 0.047150001 -0.2463
0.31 0.047150001 -0.1701
0.17560001 0.047150001 0.1167
0.041140001 0.046259999 -0.1522
-0.12909999 0.046259999 0.1256
-0.2098 -0.57050002 -0.32159999
0.189 -0.55970001 0.25170001
0.1621 0.047150001 -0.421
-0.16940001 0.047150001 -0.27759999
0.25619999 0.046259999 -0.43000001
0.1767 0.8229 0.47960001
0.4357 -0.33770001 -0.17900001
0.18000001 0.57529998 0.34470001
0.054639999 0.73390001 0.43489999
-0.3707 0.6566 0.38010001
-0.1561 0.54470003 0.3355
-0.1602 0.01458 -0.53939998
0.1132 0.04281 -0.52289999
0.37259999 0.047150001 -0.37130001
0.41749999 0.2436 0.1323
0.2159 0.69690001 0.40700001
0.40869999 0.21340001 0.1346
0.41510001 -0.15260001 0.1661
-0.35929999 -0.0093409996 0.18440001
0.09939 0.046259999 0.15700001
-0.084360003 0.67439997 0.40759999
0.1488 0.76090002 0.43939999
-0.4086 -0.26589999 0.17120001
0.4357 0.50480002 0.30050001
-0.147 -0.56580001 0.2483
0.43560001 -0.49900001 -0.2597
0.4357 -0.18539999 -0.093910001
-0.3452 -0.01035 -0.54210001
0.099349998 0.67729998 0.4048
-0.1963 0.02997 -0.53049999
0.25619999 0.046259999 0.062899999
-0.061969999 0.67470002 0.40720001
-0.42340001 -0.2057 0.1521
-0.25029999 0.047150001 -0.228
-0.3994 0.0073159998 -0.23729999
0.063560002 0.023469999 -0.53240001
-0.40549999 -0.0021500001 -0.05322
-0.43540001 -0.41839999 0.21969999
0.3856 0.032430001 -0.1417
-0.41330001 -0.55400002 0.2421
-0.2322 0.62050003 0.3809
-0.35319999 -0.56739998 -0.31760001
-0.42039999 0.49919999 0.27520001
0.40880001 0.32089999 0.1839
-0.32589999 0.61619997 0.37110001
0.35969999 0.6049 0.34459999
0.22040001 -0.56830001 -0.31999999
-0.35420001 0.80150002 0.47130001
-0.42930001 -0.60860002 -0.31670001
-0.433 -0.76950002 -0.43349999
-0.07542 0.7119 0.42820001
0.1397 0.67189997 0.40090001
-0.1056 -0.55769998 0.2683
0.4355 0.14650001 0.1026
-0.2366 0.58270001 0.35769999
-0.36700001 0.023739999 -0.50199997
-0.43470001 -0.02231 0.1058
-0.39930001 0.0093909996 0.089790002
-0.41999999 -0.7924 -0.4228
0.42199999 -0.23909999 -0.1376
-0.097750001 0.047150001 -0.5151
0.43579999 -0.72759998 -0.40310001
-0.43540001 -0.70959997 0.29139999
0.02318 0.61000001 0.36899999
-0.39320001 0.71210003 0.39910001
0.3635 0.70889997 0.39989999
0.35780001 0.0083720004 -0.5183
-0.27250001 -0.01001 -0.55299997
-0.41589999 -0.62949997 0.2895
-0.40830001 -0.44530001 -0.23280001
-0.43540001 -0.57959998 -0.30469999
-0.2949 -0.56699997 0.27090001
0.3865 0.59329998 0.3335
0.34330001 0.047150001 -0.214
0.3513 0.047150001 -0.46450001
-0.0036530001 0.047150001 0.1436
-0.017100001 -0.56739998 -0.31760001
0.40889999 -0.046500001 0.1167
-0.4355 -0.40939999 -0.22390001
-0.034650002 0.80540001 0.4736
-0.43279999 -0.079489999 -0.021190001
0.4337 -0.15899999 -0.065789998
0.1084 -0.5837 -0.32859999
-0.40849999 0.092019998 0.094360001
0.051600002 -0.0064579998 0.1999
0.28760001 -0.55830002 0.25580001
0.2538 0.70410001 0.4073
-0.42039999 -0.58700001 -0.33199999
-0.40849999 -0.001557 0.1167
-0.40869999 0.21340001 0.1346
0.2159 0.046259999 -0.33140001
0.43509999 -0.69160002 -0.36739999
-0.4355 0.6257 0.35409999
0.40880001 -0.66039997 0.278
-0.41589999 0.68480003 0.40619999
-0.1247 0.57020003 0.3502
0.40869999 -0.1227 -0.053580001
-0.41589999 0.44029999 0.26949999
-0.2744 0.53570002 0.33309999
-0.102 0.7457 0.43630001
0.13519999 0.81840003 0.45359999
-0.43540001 -0.52139997 0.2511
-0.076849997 -0.57550001 -0.30329999
0.43959999 -0.050689999 -0.01296
0.43560001 -0.055300001 0.1172
0.081479996 -0.57609999 0.2712
0.32370001 0.66619998 0.38209999
0.29629999 0.047150001 -0.2924
0.29620001 0.829 0.46169999
-0.43540001 -0.53939998 0.25560001
0.036619999 0.7044 0.41940001
-0.27700001 0.65740001 0.3953
0.4359 0.029689999 0.1032
-0.37990001 0.040720001 -0.454
0.2299 0.7647 0.43599999
0.082970001 0.043159999 0.1735
0.44870001 -0.019619999 0.071879998
-0.076860003 -0.57590002 0.25119999
0.39019999 0.02359 -0.0072860001
0.26949999 0.72399998 0.41589999
0.40869999 0.44639999 0.25560001
0.384 0.03537 0.089790002
0.43560001 -0.5528 -0.30450001
0.19050001 0.83050001 0.46599999
-0.3994 0.5844 0.33500001
-0.41929999 -0.77539998 0.2994
0.38100001 0.041299999 -0.32539999
-0.053029999 0.70630002 0.42449999
0.37619999 0.046909999 -0.4296
-0.426 -0.1559 0.1665
-0.25459999 0.78689998 0.4404
-0.2008 0.7992 0.46939999
0.22930001 -0.5808 0.25560001
-0.033530001 -0.58539999 -0.32789999
0.40869999 -0.32879999 -0.1701
0.35589999 0.01725 0.17209999
-0.099629998 -0.59320003 -0.31439999
-0.28780001 0.61559999 0.377
-0.2321 0.55409998 0.3416
-0.42480001 -0.64480001 -0.36430001
0.2163 0.02782 -0.53030002
0.3522 0.8107 0.45950001
0.054639999 0.68180001 0.40630001
-0.43450001 -0.4788 0.22310001
-0.38679999 0.03297 -0.4165
-0.3971 0.7816 0.43360001
-0.36210001 0.047150001 -0.04462
0.27500001 0.047150001 -0.26289999
0.32429999 0.01346 -0.52999997
0.43090001 -0.28349999 0.17219999
0.4136 -0.17020001 -0.099079996
-0.052919999 0.0149 -0.5377
0.01425 0.019750001 -0.53570002
0.42649999 -0.65149999 0.29519999
0.42199999 0.68599999 0.37959999
0.26069999 0.035130002 0.1768
-0.33489999 0.033610001 -0.52090001
-0.4084 -0.6469 0.2825
-0.38679999 0.03297 0.076350003
-0.42969999 0.31940001 0.20209999
-0.43279999 0.551 0.30450001
-0.38940001 -0.5916 -0.31729999
0.2025 -0.003541 0.19840001
-0.4163 -0.58999997 0.2793
-0.4355 0.1014 0.062880002
0.22499999 0.68330002 0.40040001
0.27860001 0.80680001 0.44729999
0.3978 0.01152 -0.1148
0.31009999 0.63819999 0.3721
-0.36210001 0.79799998 0.44229999
0.40869999 -0.1495 -0.075989999
0.28310001 -0.007425 -0.54860002
0.4452 -0.064929999 0.02197
0.42649999 0.067039996 0.060169999
0.23190001 0.80040002 0.46520001
-0.1918 0.79110003 0.44049999
0.068300001 0.7252 0.43020001
-0.1276 0.034469999 0.1787
-0.043919999 0.6749 0.40470001
-0.17389999 0.80080003 0.44409999
-0.38249999 -0.0075770002 0.1594
0.42649999 -0.7148 0.3116
-0.20379999 0.0024009999 0.1952
-0.3888 0.01377 -0.47639999
-0.42039999 -0.19499999 0.1771
0.3238 0.6153 0.35659999
-0.3382 -0.56080002 0.2685
-0.27250001 0.020959999 -0.53670001
0.01874 0.046259999 0.1525
-0.16500001 0.046259999 0.1391
0.41339999 -0.28349999 0.17219999
0.31900001 0.55900002 0.32780001
-0.0080859996 0.6063 0.3655
0.072470002 0.70270002 0.4197
-0.099250004 0.01363 0.1892
0.023229999 0.01068 0.1908
0.42649999 0.20909999 0.1131
-0.1231 0.005663 0.1925
-0.42930001 -0.41909999 0.2351
-0.06191 -0.55680001 0.26230001
-0.32179999 0.7949 0.4413
0.42649999 -0.51810002 -0.29350001
-0.25870001 0.5539 0.34209999
0.43419999 -0.065849997 0.1417
-0.2279 0.68699998 0.41229999
-0.41589999 -0.17030001 -0.099079996
-0.06191 0.80559999 0.45289999
-0.070830002 0.60519999 0.3664
0.43110001 -0.51950002 -0.26710001
-0.1112 0.047150001 0.15700001
-0.4086 -0.47659999 0.2377
-0.42930001 -0.15620001 -0.091150001
-0.43540001 -0.05545 0.1301
0.3734 0.045559999 -0.1925
0.42050001 -0.7985 0.31029999
0.41080001 -0.2836 -0.1621
0.4095 -0.01154 -0.28209999
0.3854 0.03449 -0.09691
-0.01222 0.72689998 0.43309999
-0.2902 0.047150001 -0.32710001
0.1173 -0.0096819997 -0.55059999
-0.40959999 0.1547 0.1088
0.2473 0.046259999 0.148
-0.35319999 0.046259999 -0.47029999
-0.3021 0.01654 0.1877
0.214 -0.56019998 0.26899999
0.43419999 -0.4111 0.2309
0.3369 0.79110003 0.44029999
-0.30840001 0.046259999 -0.37169999
-0.2247 0.01155 0.1893
-0.2441 0.016650001 0.18780001
0.42649999 0.73540002 0.4192
-0.016969999 0.005198 -0.54360002
0.40880001 -0.63789999 -0.3538
0.27869999 0.69059998 0.40000001
0.29660001 -0.57120001 0.2721
-0.03802 0.034260001 0.17820001
-0.3443 0.78259999 0.46079999
-0.4122 -0.54400003 -0.308
0.40869999 -0.37810001 -0.2059
0.43560001 0.052140001 0.090039998
-0.2367 -0.57419997 0.2726
0.42199999 -0.2438 -0.1129
-0.1112 0.046259999 -0.37169999
-0.41209999 0.009757 0.028240001
0.122 0.047150001 0.07186
-0.34470001 0.67220002 0.38909999
0.43520001 -0.64240003 -0.3405
0.3414 0.046259999 0.1167
0.072889999 0.80849999 0.47499999
-0.4122 0.3725 0.2044
-0.093269996 -0.5808 0.25560001
0.4025 0.00053199998 -0.2313
0.3154 0.047150001 -0.227
-0.3039 0.046259999 -0.34040001
0.301 0.046259999 -0.09392
0.3917 0.02276 0.074859999
0.43529999 -0.70520002 -0.38519999
0.35479999 0.046259999 -0.1208
-0.27700001 0.046259999 -0.2597
-0.1022 0.047150001 -0.27309999
-0.25459999 0.047150001 -0.47029999
-0.2322 0.047150001 0.16150001
-0.1829 0.046259999 -0.40759999
-0.40849999 -0.2079 -0.1161
0.37970001 0.045809999 -0.068520002
-0.43540001 0.45989999 0.26899999
0.41 -0.498 -0.25619999
0.4095 -0.01154 -0.2015
0.1487 0.047150001 -0.2911
0.1173 0.047150001 0.1525
-0.2411 0.046259999 -0.3628
0.44670001 -0.0017040001 0.1034
-0.2367 0.046259999 -0.049120001
0.032189999 0.76010001 0.44190001
0.099409997 0.047150001 0.1391
-0.0081479996 0.046259999 -0.3493
-0.28150001 0.046259999 0.03602
-0.27700001 0.047150001 0.067400001
0.05906 0.046259999 0.1436
-0.048470002 0.046259999 -0.1118
-0.22319999 0.046259999 -0.017750001
0.26969999 0.047150001 -0.035659999
-0.084310003 0.047150001 0.1346
-0.093269996 0.047150001 -0.2552
0.041140001 0.046259999 -0.41209999
0.099409997 0.047150001 -0.080470003
-0.4061 0.7633 0.44319999
0.2473 0.047150001 -0.39860001
0.32339999 0.046259999 0.1167
-0.2949 0.047150001 -0.43889999
-0.35319999 0.046259999 -0.30000001
-0.048470002 0.046259999 -0.27759999
-0.4023 0.71429998 0.42050001
-0.005167 -0.0089229997 0.2014
0.43489999 -0.77689999 -0.421
0.28310001 0.047150001 0.000187
-0.02606 0.047150001 -0.1477
0.054579999 0.046259999 -0.50169998
0.36379999 0.047150001 0.045000002
-0.061919998 0.046259999 -0.058079999
0.01426 0.046259999 -0.040150002
-0.35870001 0.01176 -0.52069998
0.1084 0.047150001 -0.067019999
-0.2008 0.047150001 0.01363
-0.1067 0.046259999 -0.0087890001
0.00082000002 0.76899999 0.44010001
-0.2098 0.047150001 0.062919997
-0.1874 0.046259999 0.053939998
0.1621 0.047150001 0.053959999
-0.093269996 0.047150001 -0.197
0.1218 0.046259999 0.031539999
-0.4253 0.7353 0.42989999
-0.43540001 -0.69160002 -0.36750001
0.3775 0.79530001 0.44080001
-0.4021 0.68169999 0.3865
0.4359 -0.73199999 0.30489999
-0.3529 0.047150001 -0.45249999
-0.2322 0.047150001 -0.22830001
0.1666 0.047150001 -0.17900001
-0.17389999 0.047150001 -0.1477
-0.43540001 -0.53939998 -0.28659999
0.1935 0.046259999 -0.13429999
0.1532 0.046259999 -0.22830001
0.2159 0.047150001 -0.13420001
-0.28150001 0.046259999 -0.12530001
0.26519999 0.046259999 -0.12530001
-0.4346 -0.36610001 -0.1816
0.085960001 0.047150001 -0.071510002
0.085950002 0.046259999 -0.18350001
-0.052960001 0.046259999 -0.040150002
0.41749999 -0.54009998 0.26640001
0.35210001 -0.0111 0.1903
-0.16949999 0.046259999 -0.098410003
0.0097749997 0.046259999 0.094269998
-0.1336 0.046259999 0.03602
-0.003667 0.046259999 -0.49270001
0.063560002 0.047150001 -0.040139999
-0.052960001 0.046259999 -0.084959999
0.4086 -0.05545 -0.01326
-0.4084 0.043129999 0.1032
-0.147 0.047150001 -0.022220001
0.28760001 -0.01156 0.2022
-0.4084 -0.52590001 0.25560001
0.40869999 0.50019997 0.29139999
0.36379999 0.046259999 -0.31349999
0.3233 0.047150001 0.1436
-0.2411 0.047150001 -0.29550001
0.3186 0.047150001 -0.2613
0.198 0.046259999 -0.47929999
-0.1157 0.046259999 -0.1701
0.29210001 0.046259999 -0.1432
-0.1605 0.047150001 -0.40310001
-0.3576 0.046259999 -0.23280001
-0.2411 0.046259999 -0.1432
-0.02159 0.046259999 -0.50169998
-0.035020001 0.047150001 -0.3224
0.40869999 -0.1988 -0.1029
0.1084 0.047150001 -0.18799999
0.036669999 0.047150001 -0.33590001
0.2473 0.046259999 -0.01327
-0.2008 0.046259999 0.16150001
-0.070649996 0.047150001 -0.48390001
-0.40889999 0.038649999 0.03602
-0.42039999 0.125 0.092129998
0.076990001 0.046259999 -0.2104
-0.30840001 0.046259999 0.058419999
-0.1157 0.046259999 -0.089440003
-0.084310003 0.047150001 -0.3448
0.1699 0.047150001 -0.50580001
0.3055 0.047150001 -0.022220001
0.2069 0.046259999 0.000172
0.1935 0.046259999 0.053939998
0.0277 0.046259999 -0.1611
0.17110001 0.046259999 0.02258
-0.27250001 0.047150001 -0.053580001
0.050099999 0.046259999 -0.18350001
0.018750001 0.047150001 -0.12530001
-0.2008 0.69309998 0.41749999
0.35049999 0.047150001 -0.40790001
-0.1112 0.047150001 -0.4165
-0.147 0.047150001 -0.22830001
-0.1336 0.046259999 -0.43000001
-0.1874 0.046259999 -0.12530001
0.14820001 0.72210002 0.42640001
0.036649998 0.01675 -0.53719997
0.2114 0.001601 -0.5442
-0.4278 -0.68970001 0.27720001
-0.2142 0.047150001 -0.098389998
-0.33520001 -0.58450001 -0.30520001
0.28349999 0.02177 -0.53310001
-0.156 0.047150001 -0.2687
0.1576 0.046259999 -0.3493
-0.2456 0.046259999 -0.49720001
0.27410001 0.046259999 -0.1118
-0.36059999 -0.58999997 -0.31999999
0.43090001 -0.2025 0.1512
0.40689999 0.76840001 0.4271
0.036660001 0.82859999 0.4689
0.36379999 -0.57920003 0.26100001
0.39950001 0.0061869998 -0.26609999
-0.43540001 0.3434 0.2106
0.41600001 -0.5011 0.2563
0.1397 0.65490001 0.39140001
0.28760001 0.60180002 0.3549
-0.15899999 0.0077360002 0.19239999
-0.41589999 -0.091880001 0.1505
-0.2095 0.58020002 0.35569999
-0.41620001 -0.1052 0.126
-0.16500001 0.67309999 0.40869999
0.3777 0.043719999 -0.1716
-0.2678 0.70190001 0.40900001
-0.43470001 -0.74949998 -0.39629999
0.42160001 0.068630002 0.109
-0.38550001 0.61519998 0.35499999
0.2723 -0.59320003 -0.31439999
0.40889999 0.065700002 0.085940003
0.42199999 -0.050670002 -0.006048
0.3145 0.046259999 0.1301
0.22480001 0.63 0.37549999
-0.4346 0.44490001 0.2454
-0.079769999 0.75169998 0.44080001
0.081519999 0.55580002 0.33520001
0.00082900003 0.047150001 -0.2728
-0.412 -0.088370003 -0.02633
0.4332 -0.58789998 -0.33219999
0.41769999 0.1142 0.05996
-0.39930001 0.0093870005 -0.03119
-0.052900001 0.72909999 0.43529999
0.081409998 0.65380001 0.39210001
-0.12899999 0.69690001 0.4208
0.18449999 0.046259999 -0.0087890001
-0.43279999 -0.33829999 -0.16590001
-0.3477 0.551 0.3351
-0.3822 -0.0091380002 -0.51279998
-0.4249 0.54939997 0.33059999
0.35820001 0.04685 0.1434
0.40889999 0.30759999 0.1925
-0.42480001 0.3037 0.16590001
-0.13349999 0.66509998 0.40349999
-0.1288 0.029170001 -0.53149998
-0.1605 0.61009997 0.3734
-0.0040810001 0.57480001 0.34990001
-0.4084 -0.1182 0.1391
-0.16940001 -0.56830001 -0.31999999
-0.3858 0.0053070001 -0.49849999
0.090439998 -0.5819 -0.32800001
-0.25009999 0.0099999998 -0.54140002
0.4021 0.59429997 0.33140001
0.41769999 -0.1085 -0.037439998
-0.28299999 0.040380001 0.17550001
-0.28310001 0.80059999 0.461
0.3673 0.002718 0.1742
-0.39160001 0.02207 0.02705
-0.40849999 -0.68720001 -0.38069999
0.1039 0.57059997 0.34290001
-0.43540001 -0.26629999 0.1919
-0.41589999 -0.1318 0.1608
-0.4249 0.1822 0.1241
-0.058929998 0.04355 0.1706
0.43560001 0.2183 0.1428
-0.39989999 -0.0099219996 -0.48289999
0.18449999 0.017449999 0.18619999
-0.1157 -0.57120001 0.2719
0.25189999 0.7414 0.42390001
-0.1647 0.6559 0.39910001
0.43439999 0.1596 0.1111
-0.27250001 0.046259999 0.0046529998
0.25619999 0.55669999 0.33250001
0.077009998 -0.0060530002 -0.54809999
-0.42480001 0.23190001 0.1258
0.4136 0.20039999 0.1081
0.25170001 0.81169999 0.4765
0.3933 0.01792 -0.30340001
-0.061919998 -0.59020001 -0.30829999
0.37580001 0.03087 -0.47960001
0.3452 -8.7e-05 -0.53350002
-0.4084 -0.2078 0.16599999
-0.088770002 0.0031610001 -0.54409999
0.252 0.59329998 0.35420001
-0.37560001 0.68779999 0.39039999
-0.073859997 -0.58999997 -0.31999999
0.032499999 0.58420002 0.35429999
-0.2008 0.046259999 0.1301
-0.4355 0.67940003 0.38550001
-0.1646 0.81110001 0.47690001
0.4041 0.0035850001 0.01064
0.032140002 0.65039998 0.39140001
-0.41769999 -0.3619 0.19239999
-0.2098 0.046259999 0.1077
0.4359 -0.037519999 0.1212
-0.030619999 0.56309998 0.3436
-0.31600001 0.016930001 -0.53420001
0.35879999 0.6541 0.37349999
0.12630001 0.6311 0.37619999
0.26280001 0.6656 0.39039999
-0.42030001 -0.56989998 -0.32249999
-0.1063 0.57630002 0.35100001
0.40110001 0.003243 -0.1749
-0.192 0.75620002 0.435
-0.4355 -0.05542 -0.026729999
-0.43540001 -0.62900001 0.2735
0.43020001 0.70310003 0.38940001
-0.047350001 -0.0087350002 0.2001
-0.1468 0.60409999 0.36750001
0.18449999 -0.57929999 -0.32659999
0.4359 -0.33320001 0.1973
-0.32600001 0.70429999 0.4041
-0.40990001 -0.51069999 -0.26320001
0.4359 -0.77240002 0.31380001
0.094860002 0.62529999 0.3759
0.1065 -0.002903 0.197
0.25960001 0.83170003 0.46399999
0.31900001 -0.56989998 0.24950001
-0.3263 0.046259999 -0.044640001
0.42309999 -0.6868 0.30430001
0.3098 0.01562 -0.53430003
-0.3836 0.038869999 -0.2059
-0.25760001 0.82590002 0.47499999
0.37970001 0.045809999 -0.1178
0.3946 0.017349999 -0.068530001
0.0052979998 0.035130002 0.1768
-0.43349999 -0.4506 0.2155
0.40869999 0.53149998 0.30939999
0.4357 -0.36019999 -0.2013
0.42160001 -0.052370001 0.14030001
0.4041 -0.58710003 -0.32589999
0.14569999 0.043389998 0.17389999
0.4127 0.00050600001 0.02375
0.41209999 -0.01698 0.13079999
-0.41100001 -0.03104 0.1069
-0.06191 0.75559998 0.44
-0.42629999 0.7353 0.4077
-0.41929999 -0.2199 0.1557
-0.45629999 0.038649999 0.089790002
0.4111 0.041839998 0.046640001
-0.27590001 -0.0087350002 0.2001
-0.42480001 0.59429997 0.32839999
0.04862 0.80519998 0.45680001
0.24089999 -0.002903 0.197
-0.41029999 0.1021 0.053229999
0.384 0.03537 0.062909998
-0.3845 -0.57120001 0.2721
-0.19400001 0.53670001 0.33219999
0.43270001 -0.085510001 0.14820001
-0.088540003 0.66250002 0.39879999
-0.4156 -0.1215 -0.07186
-0.16500001 -0.57740003 -0.3017
-0.4084 -0.73210001 -0.40310001
-0.43489999 0.64889997 0.38479999
0.31760001 -0.003756 0.1987
-0.3836 0.038869999 -0.3583
0.40880001 -0.77689999 0.31380001
0.31420001 0.7572 0.4271
0.1442 0.62339997 0.37369999
-0.42039999 0.078610003 0.1064
0.43520001 0.0073000002 0.02252
0.16670001 0.65759999 0.3901
-0.33829999 0.041719999 0.1645
0.2379 -0.5916 -0.31729999
0.3951 -0.59249997 -0.30970001
0.29949999 -0.57630002 0.25130001
-0.070909999 0.57419997 0.35120001
-0.119 0.79930001 0.46759999
0.1935 -0.58170003 -0.30320001
-0.39649999 -0.0045349998 0.1309
-0.33939999 0.0067909998 -0.5345
0.1229 -0.55769998 0.2683
0.19059999 0.53530002 0.32179999
0.39899999 0.66159999 0.37059999
0.43579999 0.38820001 0.2242
-0.39930001 0.0093870005 -0.089440003
-0.1068 0.60000002 0.3653
-0.06191 0.041209999 -0.52329999
0.1487 0.58270001 0.3486
0.41749999 -0.67919999 -0.3836
-0.03503 0.8096 0.44890001
0.38119999 0.01077 -0.493
-0.061949998 0.53570002 0.32890001
0.2771 0.038079999 0.1752
0.1622 0.55720001 0.33399999
-0.4156 -0.29249999 -0.1401
-0.4355 0.074510001 0.04496
0.26969999 0.031029999 -0.52670002
0.19760001 0.69440001 0.40880001
0.4041 -0.0024019999 -0.14920001
0.094920002 0.017449999 0.18619999
0.42199999 -0.213 0.1814
-0.1232 0.82590002 0.47499999
-0.40939999 -0.0099499999 -0.42550001
-0.1426 0.046259999 0.16150001
-0.1963 -0.01156 0.2022
-0.03056 0.03754 -0.52649999
-0.01599 0.82230002 0.47929999
0.2158 0.5528 0.33129999
-0.017100001 0.01952 0.18610001
-0.41589999 0.63169998 0.34920001
-0.34459999 0.6965 0.39739999
0.4136 -0.7277 -0.41069999
-0.1244 0.63349998 0.38569999
0.38699999 0.031539999 -0.29699999
0.43509999 0.6347 0.36320001
0.4355 -0.63819999 -0.3576
0.33629999 0.56919998 0.3301
-0.42039999 0.28279999 0.1807
0.25619999 -0.5733 -0.30599999
0.40549999 -0.0032879999 0.076350003
0.40079999 0.00556 -0.30000001
-0.14229999 0.70249999 0.42429999
-0.24770001 0.73159999 0.426
-0.1246 -0.57349998 -0.3233
0.4086 -0.14040001 -0.058460001
0.40880001 0.02073 0.01362
-0.088869996 0.6972 0.42039999
-0.33950001 0.6221 0.3712
-0.36480001 0.006209 0.1653
0.40869999 0.1238 0.080839999
-0.3915 0.02413 -0.089440003
0.4276 -0.2198 0.1557
0.2965 0.70920002 0.4043
-0.29699999 0.65069997 0.3899
0.35929999 -0.55650002 0.26210001
-0.42910001 -0.1057 -0.03562
0.2385 0.70670003 0.40880001
-0.052960001 0.046259999 0.1256
-0.1202 -0.55830002 0.25580001
-0.1948 -0.57160002 -0.3089
0.046349999 -0.008169 -0.54939997
-0.039549999 0.62059999 0.37639999
0.3664 0.59189999 0.3362
-0.12909999 0.046259999 0.1525
0.34130001 -0.58749998 -0.30669999
0.1353 0.57679999 0.34560001
0.40880001 -0.61110002 0.2735
-0.4086 -0.13160001 -0.062540002
0.43540001 -0.2929 -0.1433
-0.42039999 -0.12 -0.04369
-0.259 0.63150001 0.3874
-0.35210001 0.0055140001 0.17990001
0.43709999 -0.064889997 -0.0051469998
0.36390001 0.76789999 0.42809999
0.41460001 -0.18870001 0.1749
0.4341 -0.1717 -0.073090002
-0.0034010001 0.83130002 0.46129999
-0.4219 -0.066529997 0.14390001
0.3418 0.62870002 0.36109999
-0.017100001 -0.5801 0.2579
0.2024 0.59829998 0.35820001
0.2473 -0.55599999 0.2647
0.2383 0.56959999 0.3391
0.32620001 0.0317 0.17550001
0.39579999 0.0058619999 -0.4612
0.44639999 0.0027439999 0.080820002
-0.43540001 0.087930001 0.0898
0.3204 -0.58999997 -0.31999999
-0.021570001 0.02366 -0.53280002
-0.052889999 0.59429997 0.35980001
-0.1112 0.62470001 0.37819999
-0.070830002 0.63669997 0.384
-0.42480001 -0.28819999 -0.1649
-0.43090001 -0.79640001 0.31150001
-0.2899 0.82889998 0.46180001
0.40880001 -0.43630001 0.2287
0.41060001 0.065240003 0.033160001
0.37740001 0.041370001 -0.45660001
0.29660001 -0.57349998 -0.3233
-0.42930001 -0.2392 -0.1375
0.40220001 0.56279999 0.31380001
-0.37110001 0.78539997 0.46200001
-0.4091 0.50459999 0.30379999
-0.4249 -0.51380002 -0.2642
-0.40849999 0.34799999 0.2149
0.41319999 -0.15440001 -0.063110001
-0.4355 -0.62449998 -0.34490001
0.40869999 -0.25260001 -0.12530001
0.42199999 -0.5255 0.23469999
0.4244 0.31909999 0.2018
0.36860001 0.62010002 0.35159999
-0.25909999 0.54009998 0.33570001
0.099770002 0.80849999 0.47499999
-0.067890003 0.8276 0.47209999
-0.41999999 -0.17470001 -0.07423
0.26969999 -0.56819999 -0.31479999
-0.37189999 0.54400003 0.32049999
0.3414 0.046259999 -0.22830001
-0.084380001 0.5941 0.36219999
0.39789999 0.0091279997 -0.43329999
-0.2412 0.56269997 0.3488
-0.1978 0.8276 0.47209999
0.08602 0.68540001 0.4075
0.41339999 -0.34720001 -0.1708
-0.40920001 0.2631 0.1688
-0.1516 0.55830002 0.34419999
-0.33520001 0.80000001 0.47009999
0.34580001 -0.58670002 -0.32570001
-0.40400001 0.00054799998 -0.27309999
-0.45429999 0.01606 0.1034
0.4131 0.72509998 0.4287
0.42199999 0.21359999 0.14210001
-0.35820001 0.03514 -0.50220001
-0.36559999 0.04501 -0.48719999
-0.17380001 0.047150001 0.16159999
0.37909999 0.54409999 0.3087
-0.43279999 -0.32409999 -0.15790001
0.25619999 0.046259999 0.1256
0.42050001 0.00082000002 0.1265
-0.42449999 0.33829999 0.18529999
0.3096 0.5909 0.34760001
-0.06191 -0.56739998 -0.31760001
-0.2053 0.045570001 -0.5158
-0.2053 0.55440003 0.34110001
0.40869999 0.35229999 0.20630001
-0.42969999 -0.66079998 0.26969999
-0.42039999 0.0077650002 0.00047299999
0.4127 -0.2261 0.1575
0.40099999 0.77590001 0.43779999
-0.45629999 -0.01064 0.049460001
0.3901 0.63770002 0.35870001
-0.3601 0.6182 0.3635
-0.32620001 0.73379999 0.41929999
-0.28150001 -0.57050002 -0.32159999
0.3964 0.01206 -0.41240001
0.42050001 -0.1552 0.139
0.076990001 0.76450002 0.442
-0.1471 0.047150001 -0.34470001
0.32800001 0.6516 0.3766
-0.3263 -0.57050002 -0.32159999
0.43520001 0.042610001 0.1113
0.059069999 0.77350003 0.44209999
-0.1203 0.7313 0.43399999
-0.34439999 0.047150001 -0.1251
-0.41589999 -0.27239999 -0.12890001
0.072130002 0.80199999 0.4623
-0.035110001 0.60650003 0.3673
0.44909999 -0.046489999 0.02706
-0.28999999 0.579 0.35690001
0.4104 0.33939999 0.21269999
-0.1337 0.6796 0.41119999
0.40880001 -0.54390001 0.2511
-0.42480001 0.28380001 0.1548
-0.40880001 -0.50349998 0.2421
0.43560001 0.01195 0.099440001
-0.40270001 -0.55790001 0.25569999
0.1442 0.047150001 -0.3224
0.2069 0.046259999 -0.3493
-0.066380002 0.047150001 -0.2059
-0.25459999 0.046259999 -0.37169999
0.1218 0.046259999 -0.17910001
-0.1426 0.046259999 -0.1118
0.25619999 0.046259999 -0.2418
-0.17839999 0.047150001 -0.46129999
-0.12909999 0.046259999 -0.46129999
0.1218 0.046259999 0.01361
-0.16940001 0.047150001 -0.30000001
-0.01263 0.046259999 -0.17910001
-0.28600001 0.046259999 -0.067039996
0.094910003 0.046259999 -0.2418
0.0097749997 0.046259999 -0.46579999
-0.40959999 -0.2543 0.19069999
-0.1786 0.69660002 0.4192
0.1621 0.01351 -0.53820002
0.40869999 -0.1675 -0.08495
0.0067969998 -0.58060002 0.2534
-0.35299999 0.77350003 0.4332
0.39950001 0.0086110001 0.097039998
-0.3355 0.01677 0.1785
0.28740001 0.68169999 0.39309999
-0.4084 -0.266 -0.1432
0.3371 0.047150001 -0.0091159996
0.2518 0.047150001 -0.1611
0.2473 0.047150001 -0.12980001
0.27860001 0.046259999 0.148
-0.32589999 0.047150001 -0.4569
-0.16500001 0.046259999 -0.3538
-0.2098 0.047150001 -0.13420001
0.28310001 0.047150001 -0.18799999
0.1397 0.046259999 -0.30450001
-0.17839999 0.047150001 -0.2418
-0.21870001 0.046259999 0.1346
-0.156 0.047150001 -0.50169998
-0.021579999 0.047150001 -0.2911
0.27860001 0.046259999 -0.4479
-0.26800001 0.047150001 -0.17460001
-0.21430001 0.046259999 -0.40759999
-0.1605 0.046259999 0.1256
-0.1246 0.046259999 -0.50169998
0.17110001 0.046259999 0.0046529998
-0.093269996 0.047150001 -0.1701
-0.066380002 0.047150001 -0.36719999
0.22930001 0.046259999 0.031539999
0.050099999 0.046259999 -0.48820001
-0.4571 0.036759999 0.114
0.40880001 -0.08681 0.1391
0.094910003 0.046259999 -0.098410003
-0.021579999 0.047150001 -0.0491
0.01427 0.047150001 -0.22390001
0.00082299998 0.7511 0.43990001
0.01427 0.047150001 -0.1029
0.34760001 0.5395 0.31479999
0.24259999 0.63910002 0.37979999
0.40830001 -0.01043 -0.32839999
0.40880001 -0.3691 0.20630001
0.1173 0.047150001 0.098760001
-0.2992 0.047150001 -0.47049999
0.25170001 0.046259999 0.16150001
0.13079999 0.046259999 -0.25080001
-0.34419999 0.047150001 -0.01326
0.1218 0.047150001 -0.01774
0.077 0.047150001 -0.1208
-0.097750001 0.047150001 0.067400001
0.059080001 0.047150001 0.0046680002
-0.3263 0.046259999 0.0091340002
-0.084320001 0.046259999 -0.41209999
0.02771 0.047150001 -0.093910001
-0.17389999 0.047150001 0.000187
-0.084310003 0.047150001 0.16150001
0.189 0.046259999 -0.035670001
-0.02606 0.047150001 -0.39860001
-0.070859998 0.047150001 -0.17460001
0.3055 0.047150001 0.045000002
-0.048470002 0.046259999 0.018100001
-0.079829998 0.047150001 0.02259
-0.093269996 0.047150001 -0.0042940001
-0.2098 0.80080003 0.44409999
0.045620002 0.046259999 0.1122
-0.147 0.047150001 0.009149
0.42199999 -0.05528 0.1132
0.072520003 0.047150001 -0.1611
0.2069 0.047150001 -0.040139999
0.045620002 0.046259999 -0.39410001
-0.3576 0.047150001 0.01363
0.036669999 0.047150001 -0.2687
-0.026070001 0.046259999 -0.12980001
-0.05742 0.047150001 0.1525
0.3369 0.046259999 0.053939998
-0.097759999 0.046259999 0.1301
-0.01263 0.046259999 -0.30450001
-0.088789999 0.047150001 0.049479999
-0.3752 0.04724 -0.39410001
-0.017109999 0.046259999 0.044980001
0.085960001 0.047150001 -0.04462
0.03218 0.046259999 0.085309997
0.054579999 0.046259999 -0.067039996
-0.0081329998 0.047150001 0.094279997
-0.42039999 -0.25189999 0.164
-0.45629999 0.016240001 0.062909998
0.2383 0.047150001 -0.3583
0.28760001 0.046259999 -0.2552
-0.156 0.046259999 -0.1701
0.2069 0.046259999 -0.28659999
0.2025 0.047150001 -0.067019999
0.18009999 0.047150001 -0.197
-0.17389999 0.046259999 -0.1163
0.31 0.046259999 -0.43000001
0.3055 0.046259999 -0.37169999
-0.156 0.047150001 -0.3179
0.31900001 0.046259999 -0.33140001
-0.34419999 0.047150001 -0.37619999
-0.01261 0.047150001 -0.37619999
-0.021579999 0.047150001 -0.22830001
-0.039500002 0.047150001 -0.2507
-0.2142 0.047150001 -0.071510002
-0.048470002 0.046259999 -0.4165
0.31900001 0.046259999 0.085309997
0.17110001 0.046259999 -0.084959999
-0.1515 -0.57120001 0.2721
-0.2456 0.80080003 0.44409999
-0.37099999 0.046270002 0.0091340002
0.43349999 0.43430001 0.26589999
0.41749999 0.67019999 0.39809999
0.38069999 0.043409999 -0.34779999
0.42199999 -0.55549997 -0.31439999
0.076990001 0.046259999 -0.28209999
0.063560002 0.047150001 -0.2507
0.3055 0.046259999 -0.071520001
0.43360001 -0.2132 -0.1226
-0.2411 0.047150001 0.031550001
0.05012 0.047150001 -0.1074
-0.25009999 0.046259999 0.049460001
0.37889999 0.0038650001 0.1585
-0.06185 0.69749999 0.41780001
0.42649999 0.47639999 0.26249999
-0.40939999 0.1103 0.071889997
0.085960001 0.78240001 0.44029999
0.045620002 0.046259999 -0.3673
0.42649999 -0.24779999 0.1629
-0.40889999 0.22679999 0.1391
-0.2053 0.77350003 0.4411
0.4359 -0.75 0.30039999
-0.3576 0.047150001 -0.43889999
-0.17839999 0.046259999 -0.32690001
0.27860001 0.047150001 -0.38069999
-0.30829999 0.047150001 -0.49270001
-0.1381 0.046259999 -0.47929999
0.1577 0.047150001 -0.2687
0.1353 0.047150001 -0.4524
0.2159 0.047150001 -0.2552
0.18009999 0.047150001 -0.27759999
0.1218 0.047150001 -0.43000001
-0.43540001 0.25819999 0.15700001
0.23379999 0.047150001 -0.5061
0.22040001 0.046259999 -0.2687
-0.2949 0.047150001 -0.2597
0.22040001 0.046259999 -0.38519999
-0.1515 0.76899999 0.44100001
0.085950002 0.046259999 0.1077
-0.2412 0.69749999 0.41330001
-0.26800001 0.047150001 -0.49720001
-0.1919 0.046259999 -0.1074
0.2025 0.047150001 -0.1074
-0.1426 0.046259999 -0.27320001
0.18449999 0.046259999 -0.22390001
-0.36660001 0.047150001 -0.2104
-0.412 0.18780001 0.1278
-0.45629999 -0.00165 0.080799997
-0.25009999 0.047150001 0.080839999
-0.066380002 0.047150001 -0.1477
-0.02159 0.046259999 -0.2015
0.032189999 0.047150001 -0.2014
-0.079829998 0.047150001 -0.28209999
0.2518 0.047150001 0.040509999
0.094930001 0.047150001 -0.49270001
0.036680002 0.047150001 0.1256
-0.1022 0.047150001 -0.1432
0.27450001 0.047150001 0.053890001
0.41100001 0.1452 0.1043
-0.0032480001 0.65799999 0.39430001
0.40869999 -0.27500001 -0.13869999
-0.40849999 -0.32429999 -0.17900001
0.27410001 0.046259999 -0.30899999
0.1084 0.047150001 -0.3224
-0.1381 0.046259999 -0.39410001
0.1397 0.047150001 0.0898
0.3414 0.047150001 -0.36719999
0.1128 0.046259999 -0.28659999
0.2965 0.046259999 -0.4479
-0.29190001 -0.00056299998 0.19679999
-0.0186 0.04355 0.1706
-0.15979999 0.045770001 -0.52160001
-0.0036530001 0.047150001 -0.1159
0.3328 0.58350003 0.33739999
0.40869999 -0.61110002 -0.33140001
0.38980001 0.02337 -0.44220001
-0.41589999 -0.06402 -0.039689999
0.22040001 0.54079998 0.32350001
-0.41589999 0.069990002 0.06174
-0.39140001 0.02196 0.053959999
0.08602 0.5675 0.3416
0.42199999 -0.75459999 0.32190001
0.023150001 0.62410003 0.37689999
0.01874 0.046259999 -0.38519999
0.27419999 0.047150001 -0.39860001
0.1214 0.69739997 0.4156
0.1109 0.58029997 0.35030001
-0.4355 0.16410001 0.094250001
-0.29530001 0.79710001 0.46849999
0.25170001 0.046259999 -0.50169998
-0.29049999 0.55360001 0.3443
0.00082900003 0.047150001 -0.080090001
-0.42930001 0.4129 0.227
0.2518 0.047150001 0.000187
0.1709 0.69559997 0.41260001
0.0096519999 0.73909998 0.43880001
-0.42039999 -0.68910003 -0.36179999
-0.3849 0.033519998 -0.28200001
-0.40889999 -0.077869996 -0.035659999
-0.40619999 0.54009998 0.30919999
-0.40970001 -0.30579999 0.1786
-0.43220001 0.70599997 0.39879999
0.3732 0.56029999 0.31760001
0.1266 0.61720002 0.37059999
-0.41999999 -0.3888 -0.2212
0.1127 0.75349998 0.43990001
0.072520003 0.82700002 0.4585
0.1621 0.72310001 0.4258
0.094829999 0.74330002 0.43489999
-0.26350001 0.8272 0.45860001
0.25600001 0.75730002 0.4314
0.18889999 0.76959997 0.44159999
0.17110001 -0.01053 -0.55010003
0.34990001 0.58660001 0.33829999
0.3012 0.68309999 0.39430001
0.41749999 0.65740001 0.36359999
0.2159 0.64109999 0.37970001
0.1486 0.68360001 0.40720001
-0.2638 0.047150001 -0.2145
0.28760001 0.047150001 -0.3224
0.4224 0.62720001 0.3741
0.42899999 -0.1523 0.1661
0.27000001 0.018859999 -0.53469998
-0.39140001 0.021989999 -0.2194
-0.4084 -0.0095429998 -0.39860001
0.2428 0.81840003 0.45359999
-0.078720003 -0.01168 0.20200001
-0.4508 -0.0091319997 0.007187
-0.38530001 0.033849999 -0.33590001
-0.02599 0.69209999 0.41389999
-0.31760001 0.7184 0.4104
0.22930001 -0.58719999 -0.30689999
-0.066030003 0.01134 -0.5406
0.189 0.80669999 0.4474
-0.01262 -0.55830002 0.25580001
0.1427 -0.58829999 -0.3229
-0.35319999 -0.55970001 0.25170001
0.39070001 0.7511 0.4425
0.43099999 -0.71759999 -0.3779
-0.382 0.039349999 -0.057700001
-0.066349998 0.72600001 0.4339
0.42699999 -0.78890002 -0.41800001
-0.1112 0.047150001 0.071879998
0.094920002 -0.58459997 -0.30489999
0.4136 0.51090002 0.28169999
-0.1022 0.778 0.44119999
-0.37540001 0.04487 -0.075620003
-0.41999999 -0.34850001 -0.1987
-0.1336 0.046259999 -0.38069999
-0.083949998 0.020230001 -0.53600001
-0.3752 0.04724 0.031550001
0.43579999 -0.37810001 -0.2059
0.40869999 0.08794 0.053950001
-0.3865 0.70060003 0.3953
0.00082299998 0.81550002 0.45199999
-0.3935 -0.57639998 -0.32499999
0.40459999 0.70990002 0.39379999
-0.2145 0.69279999 0.4156
0.041420002 0.5668 0.34220001
-0.097750001 0.80669999 0.4474
0.25659999 0.56999999 0.33899999
0.42199999 -0.1199 -0.043979999
0.0097859995 -0.56 0.2518
-0.21879999 0.62360001 0.38229999
0.24160001 0.047150001 -0.4341
-0.1785 0.55510002 0.34299999
-0.4034 0.65130001 0.36809999
0.28299999 0.53899997 0.3231
0.22480001 0.5927 0.35460001
0.29809999 0.04355 0.1742
0.054579999 0.0019660001 -0.5449
0.28310001 0.0341 -0.52539998
0.25619999 0.0044490001 -0.54250002
0.27419999 -0.5783 0.2642
0.23379999 0.81400001 0.4781
-0.40720001 -0.0074160001 -0.2463
0.2383 -0.5837 -0.32859999
0.32519999 0.53829998 0.31819999
0.37259999 0.047150001 0.014
-0.43279999 0.036290001 0.016650001
0.27410001 0.046259999 0.1346
0.37720001 -0.55970001 0.25170001
0.4179 0.29229999 0.1595
-0.17839999 0.57789999 0.3536
0.3734 0.045559999 -0.2642
-0.2277 0.047150001 0.062919997
-0.43540001 0.38820001 0.2287
0.3813 0.043699998 -0.1327
-0.40920001 -0.41819999 -0.21179999
0.2071 0.73210001 0.42390001
-0.052949999 -0.56580001 0.2483
0.41049999 -0.3044 0.17820001
0.42680001 -0.4549 -0.2581
0.384 0.03537 0.044989999
0.42199999 0.4461 0.2728
0.40880001 0.38820001 0.21969999
-0.33950001 0.047150001 -0.30019999
-0.43540001 -0.2212 0.1705
-0.1963 0.035130002 0.1768
-0.147 0.80080003 0.44409999
-0.087679997 -0.55769998 0.2683
0.30109999 0.80049998 0.44760001
0.01122 0.046909999 -0.51740003
-0.43529999 -0.04606 -0.005107
0.43579999 -0.44980001 -0.2463
-0.1426 0.81690001 0.47979999
-0.1829 0.046259999 0.1122
0.42680001 -0.084179997 -0.050889999
0.41769999 0.2366 0.15530001
-0.32190001 0.74650002 0.42199999
-0.38060001 0.02224 0.13789999
-0.02602 0.5916 0.35769999
0.17110001 0.80080003 0.44409999
0.40130001 0.005808 -0.3493
-0.35749999 0.74260002 0.4199
-0.40920001 0.2403 0.1436
0.419 -0.47999999 0.25080001
0.38170001 -0.59020001 -0.30849999
0.43560001 -0.5528 0.24680001
0.38429999 0.03765 0.076350003
0.2561 0.62800002 0.37329999
-0.2413 0.047150001 -0.43439999
0.39179999 0.020609999 -0.037160002
-0.3617 0.67140001 0.38749999
-0.4355 -0.59799999 -0.33520001
0.43520001 -0.077859998 -0.008812
-0.33520001 0.046259999 -0.49270001
0.076990001 0.79869998 0.44440001
0.36340001 0.047150001 -0.34110001
0.0097829998 0.0086099999 0.1909
-0.2456 0.62279999 0.3804
-0.4321 -0.61860001 0.25889999
-0.2904 0.79140002 0.442
-0.43279999 0.65719998 0.36390001
-0.42930001 0.06078 0.111
0.4357 -0.1227 -0.053429998
0.2069 0.047150001 -0.43560001
0.050110001 0.53549999 0.3258
-0.3915 0.02413 -0.23280001
-0.4226 -0.31330001 -0.17900001
-0.030549999 0.046259999 0.1256
0.41749999 -0.71359998 -0.40279999
0.42649999 -0.34419999 -0.169
-0.43470001 -0.5323 -0.30090001
-0.4544 -0.01063 0.036040001
-0.384 0.7507 0.4251
-0.084689997 0.80199999 0.4623
0.40880001 -0.35120001 0.2018
-0.18719999 0.60680002 0.37220001
-0.32839999 0.0070520001 0.1847
0.1218 0.778 0.44029999
0.22490001 0.78250003 0.44220001
0.0188 0.68709999 0.41010001
0.22040001 0.046259999 -0.040150002
-0.1112 0.047150001 0.1391
-0.27700001 0.047150001 -0.3493
-0.27250001 0.046259999 -0.2911
-0.25009999 0.047150001 -0.1611
0.32789999 0.047150001 -0.2911
0.1128 0.046259999 0.1346
-0.1381 0.047150001 -0.2014
-0.3039 0.047150001 -0.30450001
-0.37110001 0.047150001 -0.22830001
-0.083999999 0.61400002 0.37380001
-0.3994 0.0073159998 -0.01327
-0.2631 0.62010002 0.38139999
-0.0036269999 0.047150001 0.045389999
0.17560001 -0.59259999 -0.30950001
0.3457 0.63980001 0.3687
-0.066380002 0.047150001 -0.1074
-0.16500001 -0.57870001 0.25229999
0.1666 0.61729997 0.36759999
0.01427 0.77350003 0.4402
0.1681 0.04346 0.1741
-0.2318 0.038260002 -0.52719998
-0.1963 0.046259999 -0.1611
0.1621 0.047150001 -0.4524
0.1128 -0.57709998 0.2683
0.02771 0.047150001 -0.4165
0.25170001 0.046259999 -0.3673
0.27860001 0.046259999 -0.1432
0.17110001 -0.57870001 0.25229999
-0.01261 0.047150001 -0.47929999
0.35949999 0.7529 0.4208
-0.33520001 0.046259999 -0.2418
-0.3039 0.046259999 -0.2418
0.35030001 0.047150001 0.045000002
0.063560002 0.047150001 -0.089429997
0.099239998 0.7295 0.43290001
0.40720001 -0.0082919998 -0.34779999
-0.1789 0.047150001 0.1471
0.077 0.047150001 -0.31349999
0.041140001 0.046259999 -0.02671
0.090439998 0.047150001 0.053959999
-0.2949 0.046259999 -0.035670001
-0.2053 0.046259999 -0.053599998
0.1577 0.047150001 0.01363
0.28310001 0.046259999 -0.01327
0.0097749997 0.046259999 -0.022229999
-0.02905 0.02541 0.183
0.1577 0.047150001 -0.47929999
-0.093340002 0.62239999 0.37869999
0.3414 0.046259999 -0.040150002
0.34580001 0.047150001 0.031550001
-0.21870001 -0.57929999 -0.32659999
-0.25870001 0.8114 0.4765
-0.1963 0.66939998 0.40529999
-0.27250001 0.046259999 0.1122
-0.088739999 0.64819998 0.39089999
-0.40400001 0.00054799998 -0.2015
-0.1919 0.046259999 -0.01327
-0.34419999 0.047150001 0.062919997
-0.066399999 0.046259999 0.089790002
0.27860001 0.046259999 0.08083
0.31900001 0.047150001 -0.026699999
0.03218 0.046259999 -0.12530001
-0.066399999 0.046259999 -0.51059997
-0.40990001 0.6027 0.35949999
0.081519999 0.62760001 0.37529999
0.0098360004 0.64969999 0.38940001
-0.06191 0.017449999 0.18619999
0.2428 0.046259999 0.01361
0.063560002 -0.55650002 0.26210001
-0.01261 0.047150001 -0.062540002
0.072509997 0.046259999 -0.40310001
0.40900001 -0.1628 0.1444
0.054579999 0.046259999 0.15700001
-0.052960001 0.046259999 -0.3493
0.1666 0.046259999 -0.049120001
0.05906 0.046259999 -0.4434
-0.1814 0.005663 0.1925
0.01011 0.61260003 0.37079999
-0.21870001 0.72799999 0.42590001
0.023220001 0.046259999 -0.46579999
0.22480001 0.616 0.36759999
-0.43520001 0.6753 0.39829999
-0.057470001 0.57429999 0.35089999
0.04569 0.66750002 0.3985
-0.1067 0.82419997 0.4569
-0.03951 -0.57730001 -0.30180001
-0.048530001 0.64649999 0.39050001
0.43439999 -0.69239998 -0.3892
0.072499998 0.03435 -0.52759999
-0.03503 0.046259999 -0.3628
-0.048470002 0.046259999 0.076350003
0.068039998 0.047150001 -0.026699999
0.081469998 0.046259999 -0.23729999
0.2518 0.047150001 -0.098389998
-0.066399999 0.046259999 -0.2552
0.1935 0.046259999 0.0405
-0.1426 0.65640002 0.39879999
-0.003663 0.026289999 0.1815
0.023189999 0.53649998 0.32710001
-0.1246 0.01209 -0.53960001
-0.048470002 0.046259999 -0.46579999
0.018750001 0.047150001 -0.39860001
0.081469998 0.046259999 -0.49270001
-0.2904 0.046259999 -0.39860001
-0.21870001 0.046259999 0.044980001
-0.1022 0.047150001 0.009149
0.22930001 0.047150001 -0.071510002
-0.035020001 0.047150001 -0.18350001
-0.061919998 0.046259999 -0.27320001
-0.3263 0.047150001 -0.18350001
-0.2008 0.046259999 -0.28659999
-0.2994 0.046259999 0.1525
0.3145 0.046259999 -0.058079999
-0.3263 0.047150001 -0.1029
0.18449999 0.046259999 0.067380004
-0.30829999 0.047150001 -0.053580001
0.023220001 0.046259999 -0.27759999
-0.31729999 0.047150001 -0.22830001
-0.2949 0.046259999 -0.4569
0.18449999 0.046259999 -0.2642
-0.079839997 0.046259999 -0.49720001
-0.37110001 0.047150001 -0.421
-0.16500001 0.6358 0.38780001
-0.40830001 0.4912 0.29139999
0.3369 0.66890001 0.38190001
-0.12890001 0.7087 0.42719999
-0.4084 0.4016 0.2287
0.4357 -0.50800002 0.2376
-0.4084 -0.1719 0.16150001
0.42649999 -0.43630001 -0.2207
0.37290001 0.047150001 -0.44260001
0.17560001 0.78689998 0.4404
-0.42930001 0.57969999 0.32030001
0.2114 0.04532 -0.52090001
-0.41479999 -0.2377 0.1603
-0.43540001 -0.082330003 0.1391
-0.4084 -0.4587 -0.2418
-0.12909999 0.00088100001 -0.54549998
-0.4084 0.32539999 0.1884
-0.3263 0.046259999 -0.2911
0.23379999 0.046259999 -0.40310001
0.22040001 0.046259999 -0.39860001
-0.1022 0.046259999 -0.48379999
-0.008134 0.047150001 -0.1522
0.1666 0.047150001 -0.1656
0.18449999 0.046259999 -0.1522
-0.3263 0.047150001 -0.197
-0.2053 0.046259999 0.1436
0.1487 0.047150001 -0.1163
-0.02159 0.046259999 -0.2597
-0.2322 -0.56580001 0.2483
-0.070859998 0.047150001 0.1436
-0.3576 0.046259999 -0.40759999
0.25619999 0.047150001 -0.47029999
-0.40849999 -0.0078720003 -0.3714
0.2965 0.046259999 -0.27759999
0.12630001 0.046259999 0.1212
0.2383 -0.57609999 0.2712
-0.31729999 0.80970001 0.44870001
-0.34419999 0.046259999 -0.17910001
0.2473 0.046259999 -0.30000001
0.1039 0.61379999 0.3671
-0.4249 -0.7119 -0.37450001
0.1472 0.80519998 0.45680001
0.40889999 -0.66949999 0.29530001
-0.25459999 -0.58149999 -0.3035
-0.38679999 0.03297 -0.3897
0.29359999 0.01657 0.1877
0.37259999 0.047150001 -0.40720001
-0.41589999 0.08664 0.072520003
0.42649999 -0.3804 -0.2165
-0.40900001 0.01174 0.0091829998
-0.4084 -0.42739999 0.2287
0.3933 0.01792 0.055070002
0.0099280002 -0.59249997 -0.30950001
0.207 0.63230002 0.375
0.42199999 -0.079620004 -0.021469999
0.01425 0.031539999 -0.52939999
-0.22319999 0.80369997 0.44580001
0.3856 0.032430001 -0.3344
-0.4355 -0.033020001 -0.01329
-0.241 0.68519998 0.40810001
-0.223 0.76450002 0.43790001
0.40459999 0.72909999 0.4039
-0.2859 0.03339 -0.52880001
0.25619999 0.037190001 -0.52410001
0.1935 0.02554 -0.53060001
-0.44999999 -0.02909 0.017309999
-0.39770001 0.01234 -0.1701
0.30540001 0.047150001 -0.50239998
0.41330001 -0.70569998 -0.37200001
0.4262 -0.1409 0.1353
-0.2101 0.047150001 -0.45680001
-0.42039999 0.057399999 0.08399
0.032129999 0.63880002 0.3849
0.3502 0.61379999 0.35330001
-0.3057 -0.59320003 -0.31439999
-0.41229999 -0.708 -0.39969999
0.1577 0.69489998 0.41119999
0.4235 -0.73989999 0.31799999
-0.4355 0.31650001 0.1794
0.40880001 -0.01528 -0.0086169997
0.2965 -0.001543 -0.54540002
-0.17389999 -0.55769998 0.25909999
-0.1829 0.047150001 0.02259
0.28310001 0.047150001 -0.2911
-0.3926 0.001151 -0.48789999
-0.1043 0.61269999 0.37130001
-0.43450001 -0.44980001 0.2411
-0.4348 -0.6609 0.2967
-0.1336 0.81840003 0.45359999
0.42199999 0.3714 0.23100001
-0.214 0.047150001 -0.38550001
-0.42030001 -0.0037809999 -0.0059859999
-0.37110001 -0.5808 0.25560001
-0.2184 0.032389998 -0.53030002
-0.4294 -0.7755 -0.41
0.2155 -0.0058479998 0.19859999
0.43579999 0.46880001 0.26899999
-0.43529999 0.66159999 0.3897
0.3628 -0.0070759999 0.1837
-0.25029999 0.047150001 -0.2507
0.34549999 0.047150001 0.1302
-0.40259999 0.00142 -0.3224
-0.2277 0.78250003 0.44119999
0.05906 -0.57920003 -0.30230001
0.40110001 0.003243 -0.05844
0.41370001 -0.1802 -0.077459998
-0.42449999 -0.078380004 -0.047660001
0.18009999 0.047150001 -0.3448
-0.097649999 0.71740001 0.43180001
0.38789999 -0.00051699998 -0.4939
0.30129999 0.047150001 0.026729999
-0.42039999 0.6329 0.37720001
0.42680001 0.54390001 0.32749999
0.3994 0.0085979998 -0.0058070002
0.34580001 0.78839999 0.46349999
-0.43279999 -0.19930001 0.1776
0.2385 0.72430003 0.41800001
0.3682 0.047150001 -0.0042940001
-0.4086 -0.064740002 0.13850001
0.40869999 0.46430001 0.26449999
-0.37549999 0.58130002 0.34189999
0.07925 0.047150001 -0.45460001
-0.4355 -0.1092 -0.053610001
0.1039 0.82130003 0.4553
-0.3752 0.04724 -0.31349999
0.40880001 -0.1406 0.148
0.1741 -0.00055699999 0.19679999
0.43560001 -0.1003 -0.04462
-0.4355 -0.396 -0.2194
0.133 0.047150001 -0.40079999
0.1938 0.64399999 0.38409999
0.42199999 -0.32429999 -0.15790001
0.34110001 0.77340001 0.43340001
-0.4122 -0.48679999 -0.27590001
-0.2999 0.82389998 0.46939999
0.40869999 0.27610001 0.16599999
0.17110001 0.56690001 0.34020001
-0.2229 -0.56699997 0.27090001
-0.075340003 0.00068699999 -0.54540002
-0.35299999 -0.58179998 -0.30360001
0.42649999 0.1058 0.055300001
-0.42930001 -0.69910002 -0.3946
-0.4355 -0.72310001 -0.39860001
-0.36770001 0.0392 0.1391
-0.40669999 0.63559997 0.36669999
-0.41209999 0.46360001 0.2825
0.3775 0.64700001 0.3651
0.2475 0.65450001 0.38690001
0.15459999 0.0026499999 0.1956
-0.4276 -0.3096 0.2059
-0.40720001 -0.01108 -0.45640001
-0.42039999 0.29409999 0.18709999
-0.43489999 0.08292 0.1042
0.4041 -0.0024009999 0.04349
0.41600001 -0.087889999 0.1216
-0.03951 0.046259999 0.15700001
0.42649999 0.28380001 0.1548
0.35730001 0.02712 0.1638
0.32600001 0.60320002 0.3495
0.31020001 0.57489997 0.3371
0.42199999 0.1908 0.1293
-0.43540001 -0.17640001 0.1525
0.081469998 0.81709999 0.4795
-0.3035 0.033349998 -0.52939999
0.43059999 0.35969999 0.2245
-0.083939999 0.81110001 0.47690001
-0.43279999 0.13060001 0.095870003
