# .PCD v0.7 - Point Cloud Data file format
VERSION 0.7
FIELDS x y z
SIZE 4 4 4
TYPE F F F
COUNT 1 1 1
WIDTH 1627
HEIGHT 1
VIEWPOINT 0 0 0 1 0 0 0
POINTS 1627
DATA ascii
-0.088869996 -0.78079998 0.25580001
0.089680001 -0.23100001 -0.2079
-0.215 0.34630001 0.1717
-0.24519999 -0.63590002 -0.088849999
-0.021430001 0.4874 -0.2534
0.0592 -0.49829999 -0.2318
0.12710001 0.83130002 0.0638
-0.1807 -0.3019 0.13770001
0.2291 -0.1451 0.01341
0.064730003 0.003706 -0.2429
0.091959998 -0.099869996 -0.2133
0.1257 0.93779999 -0.023399999
0.1347 -0.889 -0.1785
-0.032269999 0.83759999 -0.1382
-0.1011 -0.20379999 0.2031
0.16689999 0.58579999 0.1459
-0.2242 -0.2305 0.03131
0.2466 0.39019999 -0.1118
-0.27500001 0.35710001 0.0105
0.17 -0.42730001 -0.15970001
0.27450001 0.25389999 0.059470002
0.115 0.2104 -0.25479999
0.04338 0.28099999 0.27630001
0.031950001 0.82190001 0.1141
0.1566 -0.078910001 0.17640001
0.1077 0.51450002 -0.22239999
-0.1697 -0.60070002 -0.1908
0.113 0.041999999 0.2309
0.2685 0.4059 0.02125
-0.026760001 -0.42739999 -0.2305
-0.036899999 -0.80180001 -0.26800001
0.2494 -0.79189998 -0.1044
0.077129997 -0.97829998 0.018340001
-0.1432 0.40239999 -0.2297
0.13519999 -0.56959999 -0.21070001
0.2269 -0.54189998 -0.091880001
-0.048939999 0.025180001 -0.2494
-0.071759999 0.99510002 -0.001264
-0.088399999 -0.042459998 0.2242
0.042149998 0.91829997 0.122
0.0053229998 -0.2746 0.2277
-0.2683 0.15090001 -0.05937
-0.095739998 0.69800001 -0.1277
0.029209999 0.2976 -0.278
-0.2694 -0.7378 -0.032310002
-0.1353 -0.1617 -0.18340001
-0.1203 0.83389997 -0.077079996
-0.25619999 0.038989998 0.01476
-0.01027 -0.47119999 0.2351
0.038369998 -0.96289998 0.1114
0.2291 0.55589998 0.046629999
-0.048840001 -0.90329999 0.21950001
-0.01069 0.90750003 -0.12909999
-0.16429999 -0.91869998 0.19230001
-0.23190001 -0.85229999 -0.1399
0.0051950002 -0.65090001 0.2647
0.25299999 -0.72149998 -0.096770003
-0.0079220003 0.42379999 -0.26750001
-0.1102 0.1155 0.2455
-0.06639 0.96039999 -0.109
-0.21439999 -0.20919999 -0.074749999
-0.095899999 0.2879 -0.26320001
-0.26440001 -0.67809999 0.037769999
0.077699997 0.47920001 0.2447
-0.080909997 -0.47639999 -0.22130001
0.2366 0.085529998 -0.1186
-0.06983 -0.2746 0.2154
-0.19490001 -0.70050001 -0.1886
0.097010002 -0.77029997 -0.2534
0.1092 0.89700001 -0.0713
0.1719 -0.062029999 -0.16689999
0.2427 0.1072 0.1134
-0.2201 0.076169997 -0.1442
0.1301 0.3247 -0.2463
0.021740001 0.55290002 -0.23370001
-0.2309 -0.094290003 -0.032230001
0.1221 -0.1838 0.19239999
-0.248 -0.5693 -0.02689
-0.21259999 0.31369999 -0.1805
0.1095 -0.42730001 -0.2058
-0.1564 -0.94309998 0.1161
0.01197 0.09894 -0.2669
-0.25729999 0.3353 0.1007
0.058880001 0.99580002 0.016340001
-0.038959999 -0.9655 0.1073
0.1259 0.1127 -0.2385
-0.1592 0.6717 0.080810003
-0.16329999 0.2358 -0.228
0.25099999 0.00121 -0.0025500001
-0.1288 -0.8761 -0.2106
-0.25040001 0.48730001 -0.043699998
0.26820001 -0.84609997 -0.026280001
0.23370001 -0.4598 -0.016310001
-0.1521 -0.96270001 -0.093719997
-0.016039999 -0.70520002 -0.2701
-0.19069999 -0.49990001 -0.14219999
0.14910001 0.55260003 -0.1813
-0.0034759999 0.67909998 0.17389999
0.059470002 0.1067 0.26179999
0.1762 0.22939999 -0.21780001
0.1963 -0.2446 0.1156
-0.084710002 0.25389999 0.2685
0.1662 0.68769997 0.0156
-0.20559999 -0.3075 -0.097690001
0.21089999 0.61220002 -0.0046040001
-0.1152 0.34979999 -0.24969999
0.20460001 -0.79750001 -0.1779
-0.084710002 0.69639999 0.1372
0.14569999 0.36919999 0.2321
-0.095129997 -0.62379998 0.2404
0.24079999 0.38249999 0.1279
-0.069109999 -0.38929999 0.2193
-0.13240001 -0.49290001 0.1972
0.1204 0.1848 0.24969999
-0.20730001 -0.90799999 -0.1534
0.1847 -0.92460001 0.0123
-0.2242 -0.37779999 0.054680001
0.23280001 0.2167 0.156
-0.1188 -0.83569998 0.24259999
-0.1629 -0.94730002 -0.0019180001
0.1123 0.79890001 3.4000001e-05
0.14820001 -0.3696 0.1749
0.05618 0.65280002 -0.1814
0.1964 -0.96600002 -0.075989999
-0.036770001 0.52869999 0.23989999
0.021330001 -0.23100001 -0.2255
-0.19760001 0.48269999 -0.16150001
0.20640001 -0.81209999 0.1743
0.068779998 0.58939999 0.2087
0.070220001 0.41100001 -0.26089999
0.2543 0.4497 -0.070179999
-0.17659999 0.32440001 0.2142
-0.25279999 0.44929999 0.074879996
0.0309 -0.59240001 0.25139999
-0.066969998 0.60799998 -0.2015
0.1939 -0.671 0.1839
-0.075220004 -0.67189997 -0.25709999
0.095080003 -0.62379998 -0.2405
-0.1233 0.89120001 0.042800002
0.04346 0.2375 -0.27700001
-0.2245 -0.54170001 0.09742
0.1284 -0.30149999 -0.18790001
-0.26890001 0.36790001 -0.04857
0.01549 0.036139999 -0.25569999
-0.21969999 -0.17649999 0.063079998
0.141 -0.9443 -0.1024
-0.054499999 -0.1495 0.2234
-0.058669999 0.6728 -0.16760001
0.018789999 0.75639999 0.12
-0.1455 -0.37850001 -0.1776
-0.2651 0.3899 0.059659999
-0.234 -0.852 0.13699999
0.26589999 -0.69419998 -0.038029999
0.22220001 0.5363 -0.090960003
0.17120001 -0.182 -0.1498
0.2282 -0.2746 -3.1e-05
-0.1917 -0.37650001 -0.1269
-0.1982 -0.03822 -0.13869999
0.1688 0.42230001 -0.20640001
0.11 -0.89310002 0.23909999
0.2023 -0.085369997 0.1215
-0.222 -0.889 0.047570001
0.037999999 -0.1049 0.2286
-0.0051369998 -0.58029997 -0.2527
-0.1838 -0.1054 0.141
-0.19769999 -0.78670001 0.1873
-0.124 -0.7324 -0.2421
0.23540001 -0.039519999 0.05886
-0.073480003 0.3461 0.2669
0.2333 -0.59439999 0.099019997
0.1635 0.008835 -0.1904
0.20550001 0.1886 -0.1882
0.01338 0.1899 0.278
0.2383 0.49489999 0.082690001
-0.2579 -0.78119999 0.085589997
0.2014 0.59369999 -0.082180001
-0.1557 -0.2133 -0.1661
-0.059719998 -0.88440001 -0.2599
0.1529 0.3105 0.2341
-0.078019999 -0.61150002 -0.24529999
0.12809999 -0.1929 -0.1877
-0.0105 0.59759998 -0.2167
0.1587 0.067780003 0.2071
0.02204 -0.90249997 0.20379999
0.1877 -0.7432 -0.1982
0.00040399999 0.99540001 0.073569998
0.068400003 -0.4614 0.22490001
0.2771 0.33590001 0.01126
0.032340001 -0.62370002 -0.25650001
0.2057 0.4549 -0.16060001
-0.1323 0.57080001 0.1847
0.1279 0.90200001 0.02138
-0.086589999 0.83530003 0.113
-0.1596 0.049229998 -0.2025
-0.1201 0.92559999 -0.045839999
0.1874 -0.4887 0.1443
-0.1974 0.5201 0.1454
0.088909999 0.84280002 -0.1035
0.22499999 -0.14910001 -0.043060001
-0.25839999 0.1344 0.085830003
-0.068240002 -0.94800001 0.1893
0.19310001 0.34630001 -0.1982
-0.1146 0.81230003 0.0068990001
-0.0436 0.17739999 0.27320001
0.063859999 0.99089998 -0.105
-0.13510001 0.37900001 0.23800001
-0.2559 0.099069998 -0.077859998
-0.02334 -0.94999999 -0.2286
0.02134 -0.83569998 0.2692
0.25729999 0.2412 0.1116
0.032269999 -0.3619 0.226
0.02407 0.54970002 0.2342
0.1662 -0.75590003 0.2148
0.25780001 0.052919999 0.021299999
0.1151 -0.83569998 -0.24420001
0.2561 -0.69169998 0.083360001
-0.1127 0.069629997 -0.2361
0.2274 0.053440001 0.1242
0.097099997 0.95289999 0.081419997
0.237 -0.59649998 -0.091499999
0.2289 0.03115 -0.1111
0.090360001 -0.96950001 0.078469999
0.24969999 -0.58990002 0.03884
-0.059319999 -0.34549999 -0.2217
0.02726 -0.99049997 -0.02722
0.1233 0.60110003 -0.1754
-0.21510001 0.58490002 -0.059020001
-0.25529999 0.051569998 -0.038849998
0.2375 -0.852 -0.12989999
0.080920003 0.34079999 -0.2649
-0.04087 0.99580002 -0.046739999
-0.15009999 0.65539998 -0.1126
0.2529 0.2051 -0.1186
-0.016729999 0.44960001 0.2622
0.1988 0.50379997 0.1505
0.077909999 0.41949999 0.2563
-0.0049999999 0.069430001 0.26249999
-0.04885 -0.2256 -0.222
0.1406 -0.2841 0.1779
0.2271 -0.69819999 0.1462
0.27020001 -0.76490003 0.026930001
-5.3e-05 -0.54759997 0.2471
0.24070001 -0.01297 -0.059889998
-0.23649999 0.54070002 0.031830002
-0.2411 0.2014 -0.1436
-0.1076 0.76440001 0.047630001
-0.14659999 -0.72149998 0.22759999
0.26480001 -0.88419998 0.02148
-0.072449997 -0.98189998 -0.043839999
-0.27500001 0.243 0.05954
-0.1682 -0.59930003 0.19069999
-0.2106 -0.1328 -0.09189
-0.1294 0.43869999 0.23199999
0.098549999 0.15880001 -0.25650001
0.08066 -0.38370001 0.21529999
0.23019999 -0.92690003 -0.091760002
0.054189999 0.34619999 0.27039999
0.1744 -0.91100001 0.076020002
0.19679999 0.5934 0.09454
0.2193 0.31709999 0.1709
-0.043579999 -0.99049997 0.05993
0.086010002 -0.2638 0.2096
0.2712 0.32449999 -0.065219998
-0.2015 -0.026070001 0.1381
0.1673 0.6462 -0.09719
0.054230001 -0.91659999 -0.24869999
-0.16240001 -0.34549999 0.16240001
0.1777 -0.54769999 -0.1707
0.22050001 0.29190001 -0.1718
-0.1638 -0.2142 0.1587
-0.1331 0.4621 -0.22490001
-0.22499999 -0.01164 -0.1014
0.23549999 0.34619999 -0.1435
0.21870001 -0.2527 -0.06261
-0.23019999 -0.5848 -0.1027
0.1084 0.74440002 -0.069660001
-0.080329999 0.83770001 -0.1163
0.094599999 0.82700002 0.1052
-0.18099999 -0.087090001 -0.1489
-0.1468 -0.28189999 -0.1734
-0.074259996 -0.98519999 0.1409
0.2286 -0.4901 -0.065580003
-0.23459999 -0.47350001 0.01905
0.091770001 -0.37830001 -0.2104
0.19859999 -0.27469999 -0.1125
0.23559999 -0.50459999 0.037579998
0.2129 -0.90429997 0.14820001
-0.25979999 0.2104 0.1028
0.26109999 -0.85530001 0.072099999
0.271 0.19410001 0.070380002
-0.1913 0.64270002 -0.03774
-0.2176 -0.064400002 0.095490001
-0.214 0.085419998 0.15459999
0.2617 0.09866 -0.05164
0.1252 0.59240001 0.1788
-0.02671 0.81550002 0.1125
0.22499999 -0.2146 0.02672
-0.12630001 -0.94440001 0.044160001
0.245 0.51209998 -0.03176
0.20630001 -0.3865 -0.1008
0.25799999 -0.89990002 -0.03768
0.2721 0.2728 -0.074040003
-0.1164 0.9914 0.037590001
-0.046149999 0.91829997 0.1203
0.1243 0.83810002 -0.065389998
0.227 0.1473 0.1516
-0.26809999 -0.79210001 -0.037560001
0.19 0.5363 -0.1468
0.063560002 0.7529 -0.106
-0.04507 0.99559999 0.04919
-0.1476 0.71289998 0.02139
0.18170001 0.44220001 0.1921
-0.2572 -0.89880002 -0.047309998
-0.23890001 0.30809999 0.1469
-0.2139 -0.80659997 -0.1654
-0.070689999 -0.29139999 -0.2165
0.103 -0.52530003 -0.2193
0.084210001 -0.90899998 -0.19059999
-0.083779998 0.153 -0.26179999
-0.0053480002 -0.792 0.2719
0.1684 0.2015 0.22220001
0.1688 -0.86250001 -0.2075
-0.2023 0.2665 -0.1974
-0.1797 0.36610001 -0.20640001
0.1409 -0.96920002 0.1514
0.1244 -0.67799997 -0.2375
-0.20100001 0.1398 0.18520001
-0.05483 -0.94059998 -0.1568
-0.1362 -0.03435 0.20100001
-0.22310001 -0.41819999 -0.06639
-0.1429 0.1997 0.2402
0.087090001 -0.69340003 0.25459999
-0.2351 -0.65380001 0.1212
0.1573 0.54329997 0.17829999
-0.21529999 0.1402 -0.16670001
0.093350001 0.73409998 0.098459996
0.096670002 -0.51490003 0.22
-0.2403 -0.51959997 -0.021369999
-0.02177 -0.99049997 0.01091
0.055690002 0.86619997 0.1195
-0.21699999 -0.88279998 0.097460002
-0.1591 -0.81699997 -0.2184
0.1551 0.1488 0.2256
-0.28029999 0.2647 -0.02141
0.1618 0.66259998 0.088059999
-0.1453 0.5952 -0.16240001
0.2235 -0.085929997 -0.071649998
0.26730001 0.30630001 0.084020004
0.054189999 0.16150001 0.2703
-0.042160001 0.76499999 -0.1096
0.2344 -0.088849999 0.0113
-0.2062 0.40059999 0.1741
-0.1602 -0.01627 -0.1869
-0.2264 -0.2146 -0.016039999
-0.2277 -0.36179999 -0.02166
0.1075 0.76679999 0.044580001
0.12549999 0.48899999 0.2221
-0.23029999 -0.1109 0.02125
0.20290001 -0.1436 0.1072
0.17219999 -0.91579998 0.18780001
0.076650001 -0.042649999 -0.229
0.2394 -0.75760001 0.13169999
0.1717 -0.68370003 -0.20559999
0.054400001 -0.1547 0.2228
-0.1124 -0.41100001 0.20290001
-0.1816 -0.64920002 -0.1919
-0.186 -0.16 0.1321
0.096670002 -0.71600002 -0.25279999
0.0184 -0.47049999 -0.2344
-0.27270001 0.1479 0.022840001
-0.036570001 -0.42989999 0.22930001
0.2122 -0.4249 0.093790002
-0.2001 -0.2527 0.1085
-0.2471 -0.75940001 -0.1129
-0.21780001 0.37169999 -0.1638
-0.1939 -0.4377 0.1293
-0.1427 0.71880001 -0.026930001
0.18449999 -0.60750002 -0.1795
-0.18619999 0.45730001 0.185
0.045990001 -0.34490001 -0.22390001
0.01599 -0.20379999 0.2264
0.191 0.03224 0.1697
-0.1344 -0.1114 -0.1882
0.016209999 -0.046069998 0.2403
-0.155 0.063510001 0.20909999
-0.079340003 0.74250001 0.1026
0.12980001 -0.95599997 0.1032
0.1042 0.26109999 0.2606
0.23370001 -0.6397 -0.1185
0.086010002 -0.93349999 0.2278
-0.04857 -0.68360001 0.26339999
-0.1707 -0.007098 0.1811
-0.1565 -0.7044 -0.22
0.067220002 0.52829999 0.2349
0.0052680001 0.69169998 -0.1647
-0.23 -0.70349997 -0.1434
-0.069930002 0.1344 0.26370001
-0.108 0.61210001 0.1815
0.083870001 -0.00062800001 0.23459999
0.1927 -0.089060001 -0.1332
-0.1127 -0.29100001 0.1987
-0.080810003 0.243 -0.2701
-0.25459999 -0.8592 -0.087679997
0.13510001 0.2647 -0.24789999
0.1549 0.69840002 -0.037500001
0.1839 0.1172 0.1983
0.1196 -0.97130001 -0.069360003
0.1294 0.47119999 -0.2245
-0.02634 0.3626 0.2714
-0.1734 0.1437 -0.21070001
-0.1183 0.73610002 -0.06391
-0.07203 0.0066610002 0.2402
-0.05187 -0.021299999 -0.2401
-0.021330001 -0.8466 -0.26890001
0.2131 -0.50019997 0.1059
-0.1115 0.94559997 0.063560002
-0.15800001 -0.53079998 0.1849
0.04445 -0.30610001 0.2234
0.27939999 0.22130001 -0.021269999
-0.21089999 -0.34549999 0.086510003
0.1609 0.096110001 -0.2115
0.016620001 -0.98400003 -0.1735
-0.25839999 0.4386 -0.05951
0.1508 -0.87949997 0.21969999
0.1081 -0.78670001 0.2484
-0.26519999 -0.72140002 0.059670001
0.1093 0.94559997 -0.066830002
0.03187 0.73150003 -0.13339999
-0.2087 0.57480001 0.0867
0.2246 -0.36199999 0.037579998
-0.1247 -0.98210001 0.12989999
-0.176 0.62010002 0.1099
-0.26249999 0.4391 0.027240001
-0.27090001 0.3409 0.05429
-0.071460001 -0.32370001 0.2167
-0.1382 0.82749999 -0.030540001
-0.2279 -0.2692 0.0053039999
0.1024 -0.97049999 0.1779
-0.26800001 -0.87900001 0.0060080001
-0.2332 0.47940001 0.1053
-0.1462 -0.095119998 0.1815
-0.2481 0.0255 0.059590001
0.17110001 -0.56519997 0.1814
0.118 -0.083470002 0.2044
-0.102 -0.1874 -0.2034
0.016170001 -0.5363 -0.2438
0.091519997 0.44949999 -0.2458
0.21269999 -0.17640001 -0.078550003
-0.2165 0.4366 -0.15189999
-0.050530002 0.60519999 0.20819999
0.05415 0.118 -0.26460001
0.1061 0.01977 -0.2296
-0.1233 0.68800002 0.113
0.1397 -0.46520001 0.1881
0.26199999 -0.79939997 0.073469996
0.2393 0.4359 -0.1118
0.032359999 0.4549 0.25909999
-0.069590002 -0.88389999 0.25819999
-0.244 -0.74330002 0.1205
-0.1293 -0.48109999 -0.1982
0.032340001 -0.088969998 -0.2317
0.25319999 0.069169998 0.069729999
0.026839999 -0.72149998 -0.2696
0.1194 -0.63419998 0.2323
0.064209998 0.53600001 -0.2332
-0.1113 -0.96249998 -0.07181
0.206 -0.58939999 0.1468
0.1285 0.68229997 0.1128
0.1276 -0.96069998 -0.0047050002
-0.1028 0.8021 -0.0449
-0.1927 -0.94419998 -0.1301
0.19679999 -0.01242 -0.1485
-0.2225 0.02579 0.1257
-0.169 0.44780001 -0.20110001
-0.25119999 -0.64300001 0.077550001
-0.026900001 0.06363 -0.25889999
-0.2033 -0.51440001 0.1296
0.021500001 0.99260002 0.1175
-0.02369 -0.97439998 -0.1184
0.18700001 -0.37459999 0.133
-0.2076 0.6146 0.024080001
0.21070001 0.39140001 0.168
0.02727 0.62349999 -0.20299999
-0.2764 0.1723 -0.01615
0.01771 0.71649998 0.14560001
-0.077809997 -0.73750001 0.2615
0.2041 -0.32910001 0.1023
-0.1648 -0.95090002 0.161
-0.2096 -0.26370001 -0.08602
0.2387 -0.6886 -0.1237
0.1327 -0.094389997 -0.192
-0.020950001 0.56900001 0.22759999
-0.1524 0.19239999 -0.2334
-0.2692 0.29730001 0.080320001
-0.26769999 -0.81389999 0.03633
-0.1953 -0.88919997 0.1795
0.1681 -0.83929998 0.21080001
-0.049789999 0.80839998 -0.1022
-0.2393 0.53839999 -0.016450001
-0.17900001 -0.98070002 -0.02846
-0.2209 -0.4928 0.086180001
-0.20900001 0.22669999 0.1876
0.2404 0.498 -0.075549997
-0.13590001 -0.4492 0.18960001
0.05291 -0.95490003 -0.1084
-0.13519999 0.1559 0.2406
-0.1821 0.25929999 0.2142
0.1047 -0.4815 -0.212
-0.26210001 0.090980001 0.038410001
-0.095129997 -0.50379997 0.2186
-0.098839998 0.91469997 -0.083149999
0.1101 -0.155 -0.2015
-0.1238 -0.93370003 0.2114
0.005254 0.2158 -0.2814
-0.059719998 0.4605 -0.2543
-0.1715 -0.68360001 0.20550001
0.1156 -0.2273 0.1961
-0.2069 -0.9479 -0.0069490001
-0.1014 -0.87779999 -0.2467
-0.019269999 -0.87900001 0.2413
-0.13699999 -0.61150002 -0.2182
0.18700001 -0.1383 -0.133
0.1778 -0.02668 0.16779999
0.2324 -0.80129999 0.1406
-0.1468 -0.3019 0.1733
0.075220004 0.058850002 0.24879999
-0.1078 0.53609997 0.21510001
-0.096409999 0.6602 0.1587
0.27630001 0.156 4.9999999e-05
0.069650002 0.89109999 -0.1108
-0.1216 -0.96139997 -0.002848
-0.048889998 0.48789999 0.2494
-0.1078 -0.14910001 0.2022
0.1383 -0.77029997 -0.23559999
0.032359999 -0.87889999 -0.26460001
-0.1168 -0.74860001 0.2456
-0.083520003 -0.93480003 0.2279
0.25420001 0.25929999 -0.1193
0.18529999 -0.28369999 0.1312
0.094549999 -0.33500001 -0.20739999
-0.027109999 -0.47080001 -0.2333
0.065130003 -0.7432 -0.26530001
-0.2418 -0.56400001 0.064369999
0.01504 0.1418 -0.2728
0.1561 -0.79759997 0.2209
-0.2264 -0.6886 0.1455
0.2228 0.1534 -0.15889999
0.26429999 0.085409999 -0.01052
-0.23899999 0.3064 -0.147
-0.1219 0.99150002 -0.0053280001
0.223 0.47350001 0.13150001
0.1044 -0.04363 0.2173
0.1802 -0.211 0.1373
-0.2403 0.46740001 -0.095020004
-0.1946 -0.1892 -0.1191
0.1247 0.98390001 -0.0112
0.1383 -0.5711 0.2086
0.058910001 -0.25830001 -0.2203
-0.20730001 0.55409998 -0.1112
0.021539999 -0.75400001 0.2705
-0.17730001 -0.90920001 0.1001
-0.05294 0.68260002 0.16249999
-0.2128 -0.2256 0.077809997
-0.155 -0.85750002 0.22
0.26679999 -0.6649 0.0074410001
0.2385 0.54339999 0.006844
-0.25400001 0.1723 -0.1082
-0.065360002 0.99430001 -0.081699997
-0.24770001 -0.81940001 0.1077
-0.0052990001 0.27559999 0.28189999
0.090800002 0.6767 0.15009999
0.022290001 -0.93980002 0.1434
-0.1025 0.052689999 0.23720001
0.21269999 -0.2333 0.077969998
0.2071 -0.88929999 0.092459999
0.2712 -0.73229998 -0.016179999
0.1742 0.049929999 -0.19140001
-0.1134 0.52490002 -0.2168
-0.054960001 -0.95160002 -0.20029999
0.25960001 0.1288 0.080980003
0.073890001 -0.73360002 0.26249999
-0.0053329999 -0.7051 0.27149999
-0.043200001 -0.04532 0.2369
-0.063340001 -0.1806 -0.21950001
-0.1733 -0.55500001 -0.17829999
-0.27630001 0.32449999 -0.02703
-0.04171 0.75880003 0.1129
-0.096340001 -0.92500001 -0.13410001
0.1847 -0.37830001 -0.1362
0.01572 -0.1441 -0.2289
-0.1822 0.37349999 0.2035
-0.26320001 -0.75269997 -0.074419998
0.2128 0.59909999 0.03551
0.029850001 0.4418 -0.26179999
-0.21269999 -0.46970001 -0.099849999
-0.1346 0.29179999 -0.24699999
0.2339 -0.92110002 0.0083100004
-0.2384 -0.80430001 -0.1311
0.2313 -0.4601 0.032269999
0.15800001 0.40779999 0.2174
-0.031350002 0.4041 0.26730001
0.094010003 0.61989999 0.1847
-0.2581 0.38420001 -0.085720003
-0.178 -0.28200001 -0.1407
0.091789998 -0.83029997 0.25400001
-0.074089997 0.07006 -0.25220001
-0.055190001 0.97820002 0.1134
0.1716 0.61729997 0.1178
-0.0117 -0.75449997 -0.27239999
0.25409999 0.123 -0.092200004
0.2597 0.40619999 -0.075549997
0.038649999 0.68290001 0.1666
0.15009999 -0.7173 0.226
0.0156 0.51389998 -0.24690001
0.05463 -0.99049997 0.08168
-0.05491 0.86119998 0.1202
-0.015869999 0.64420003 0.1925
-0.04944 -0.78670001 0.2667
0.05934 -0.56400001 0.2418
0.066830002 0.94919997 0.1093
0.16859999 -0.95810002 -0.0090290001
-0.22310001 -0.18260001 -0.04439
0.2189 -0.13850001 0.069490001
-0.1265 -0.037519999 -0.2077
-0.046859998 -0.96799999 -0.084890001
-0.2211 -0.3073 -0.059149999
-0.26230001 0.33160001 -0.089680001
-0.059360001 0.30809999 0.27360001
0.12729999 -0.1292 0.19220001
-0.081699997 -0.56120002 0.2335
0.26010001 0.35699999 -0.087700002
-0.24250001 0.2429 0.1446
-4.4e-05 -0.66750002 -0.26769999
-0.005533 -0.97439998 0.085309997
0.1825 -0.24150001 -0.1339
0.2035 -0.71069998 -0.1789
0.1048 0.7184 -0.1011
0.245 -0.54390001 0.0086160004
-0.1956 0.52100003 -0.1473
-0.198 -0.60659999 -0.1619
-0.193 -0.78490001 -0.193
0.080799997 0.67690003 -0.15530001
-0.25170001 0.17209999 0.1139
0.2245 -0.31830001 0.037519999
0.2034 0.2032 0.193
-0.25760001 0.2608 -0.1119
-0.043430001 -0.5686 -0.2457
0.1159 -0.2638 -0.1965
0.162 -0.31279999 -0.162
0.1627 -0.8998 -0.15109999
0.048099998 0.79900002 -0.1011
-0.088710003 0.73070002 -0.1047
0.23280001 0.2719 0.1573
0.2201 -0.55309999 0.1131
-0.045839999 0.92559999 -0.1201
0.029850001 0.2269 0.2782
-0.0020930001 0.83740002 0.1424
0.104 -0.4747 0.211
-0.2561 -0.6347 -0.049460001
0.081710003 0.99430001 0.065360002
0.0845 -0.80849999 -0.25760001
-0.090109996 0.38699999 0.2559
-0.2397 -0.020850001 0.055550002
-0.2286 -0.084310003 0.059280001
-0.2291 0.5474 -0.064110003
0.109 -0.99049997 -0.032699998
0.22840001 -0.78670001 -0.1472
-0.2624 -0.63609999 9.7999997e-05
0.25529999 -0.68360001 -0.082589999
0.08602 0.1398 0.25870001
0.24330001 -0.5582 -0.04338
0.2419 -0.662 0.1076
0.1583 0.62010002 -0.133
-0.091689996 -0.37279999 -0.2101
-0.1909 0.59170002 -0.1101
0.27739999 0.29229999 0.033
-0.1123 -0.077129997 -0.2086
0.015790001 0.35690001 0.27379999
0.255 0.46650001 0.043850001
-0.12729999 -0.80599999 -0.23989999
0.24439999 0.3371 0.13150001
-0.2112 0.1779 0.17919999
0.097050004 -0.56919998 -0.2297
0.1181 0.94569999 0.048319999
-0.1123 0.60720003 -0.1812
0.15620001 -0.193 0.16509999
-0.081029996 0.3784 -0.26069999
-0.096830003 0.86309999 -0.090510003
-0.2353 -0.66119999 -0.1241
0.1235 0.68260002 -0.1183
0.26030001 0.39700001 0.076860003
0.2308 -0.41100001 -0.015860001
0.058959998 -0.20919999 -0.22040001
-0.13600001 -0.68360001 0.2326
0.2286 -0.1111 -0.032389998
0.015860001 -0.40549999 -0.2308
-0.1313 -0.41299999 -0.1908
-0.043499999 -0.49259999 0.2334
-0.1531 0.60619998 0.14820001
-0.1033 0.86390001 0.082000002
0.2422 0.51450002 0.048629999
-0.080679998 -0.8193 0.25889999
-0.23280001 0.40000001 -0.13950001
0.149 0.45840001 0.2138
-0.13160001 0.85769999 0.01381
0.24240001 -0.02891 0.02142
-0.1494 0.35890001 -0.2306
0.12710001 0.89649999 -0.02675
0.032809999 -0.47600001 0.2331
0.080530003 0.22669999 -0.26969999
0.032219999 0.94569999 -0.1241
-0.2077 -0.15449999 0.095080003
-0.066660002 -0.1059 0.223
-0.032230001 0.031090001 0.2527
0.18080001 -0.71280003 0.20200001
-0.16419999 -0.12 -0.16419999
-0.27669999 0.22660001 -0.043439999
-0.092830002 0.8132 0.067510001
-0.099699996 -0.51059997 -0.21789999
-0.059749998 -0.63440001 0.25459999
-0.12890001 -0.56940001 -0.2154
0.2703 0.16150001 0.04874
-0.1847 0.080119997 0.18979999
0.1358 0.82560003 0.0163
0.154 0.02925 0.2024
0.1094 0.81580001 -0.036940001
-0.070780002 -0.101 -0.2219
-0.22229999 0.4276 0.14669999
-0.17829999 -0.40009999 0.1464
0.178 0.28729999 0.21529999
0.27090001 -0.79210001 -0.01616
0.1908 0.50080001 -0.1628
-0.2703 0.3953 0.016039999
-0.02152 0.1288 -0.2703
-0.043170001 -0.1382 -0.22570001
-0.2254 -0.41639999 0.059009999
0.08574 0.62769997 -0.1838
0.063189998 0.99550003 -0.02225
0.2809 0.2485 0.016009999
0.189 -0.64579999 -0.184
0.055830002 0.75569999 0.1084
-0.1182 -0.59670001 0.22490001
-1.1e-05 0.86930001 -0.1323
0.163 0.38420001 -0.2168
-0.243 -0.034510002 -0.01063
0.070890002 -0.97250003 0.15539999
0.072219998 -0.0876 0.2229
-0.1171 -0.067280002 0.20819999
0.1045 -0.9346 -0.111
-0.24609999 0.1019 0.1029
-0.2421 0.3461 0.1346
0.13410001 0.4276 -0.2315
-0.2615 -0.6821 -0.062399998
0.2129 -0.47659999 -0.1004
-0.082319997 0.93480003 0.098250002
-0.1978 -0.1092 -0.1221
-0.14129999 -0.3364 -0.1787
0.038509998 0.99519998 0.067639999
-0.032219999 -0.31830001 -0.2252
0.048360001 -0.95569998 -0.1803
-1.3e-05 -0.99049997 -0.092600003
0.1944 0.080279998 -0.1789
-0.2234 -0.146 -0.056460001
-0.064829998 0.22130001 0.2737
-0.085770003 0.63800001 -0.1778
-0.13240001 0.48989999 0.2175
0.19 0.65200001 -0.00875
-0.22679999 -0.182 0.01605
0.206 0.6124 -0.042649999
0.1074 0.8107 0.03734
-0.037939999 0.99379998 -0.1085
0.1211 -0.3856 0.19679999
-0.097139999 -0.2419 0.20469999
0.2177 -0.2146 -0.066419996
-0.048889998 0.2647 0.27669999
-0.1559 -0.81349999 0.221
0.039579999 0.61400002 0.2059
-0.059549998 -0.83569998 -0.26409999
-0.1059 -0.29460001 -0.20190001
0.1163 0.73580003 0.067950003
-0.27239999 -0.79759997 9.9999997e-06
0.0053539998 -0.81940001 -0.27169999
-0.2458 -0.59600002 -0.069679998
-0.1812 -0.72149998 0.2023
-0.2184 -0.82480001 0.1587
0.14139999 -0.43279999 -0.18430001
-0.1603 0.62239999 -0.1284
0.18780001 -0.97710001 -0.040709998
0.0050269999 -0.083209999 0.2351
0.032499999 0.074320003 0.25999999
0.015760001 0.94559997 0.1265
0.1943 -0.84109998 -0.1895
0.17560001 0.1346 -0.2075
0.1929 -0.41589999 -0.1279
0.15620001 -0.41589999 0.1719
0.12890001 -0.34 0.1883
-0.1626 0.29179999 0.2272
-0.0052519999 0.74860001 -0.1266
-0.04995 -0.92739999 -0.243
-0.095169999 0.95819998 -0.084650002
-0.22400001 -0.1332 0.057840001
-0.1857 -0.88489997 -0.17380001
-0.1375 -0.1983 0.1804
0.1813 -0.78119999 -0.2025
0.198 0.46950001 0.1657
-0.1154 0.2412 -0.25569999
0.1953 -0.77999997 0.1902
-0.1902 0.64780003 0.024289999
-0.09279 -0.91039997 -0.1693
0.22310001 -0.29620001 -0.040089998
0.14480001 0.71569997 0.02812
-0.23019999 -0.4219 -0.02671
0.1991 -0.171 -0.1129
0.24250001 0.41679999 0.1133
0.098719999 -0.1582 0.206
0.1057 0.078369997 0.2401
-0.04349 0.2321 -0.27680001
0.2692 0.40599999 -0.01591
-0.1363 -0.1328 0.1848
0.055690002 -0.91549999 0.21610001
-0.2177 0.58279997 0.05156
0.1838 -0.05971 0.15189999
0.26249999 -0.67830002 0.0484
-0.1063 -0.45269999 -0.2085
0.2617 0.43610001 -0.036570001
-0.2112 -0.53179997 -0.1239
0.076669998 0.03906 -0.2454
-0.24079999 0.43900001 0.1083
-0.2085 -0.60479999 0.1478
-0.2247 0.043219998 -0.12809999
-0.1154 0.2701 0.25580001
0.1144 0.35839999 0.2485
-0.016100001 0.34079999 -0.27599999
-0.19760001 -0.3382 -0.1166
-0.1742 -0.56349999 0.1794
-0.22130001 -0.31819999 0.059110001
0.092069998 -0.60149997 0.2377
-0.24089999 0.081390001 -0.1064
0.1058 0.85710001 0.079010002
0.072460003 -0.93059999 -0.21789999
-0.01046 -0.1218 0.23100001
0.22849999 -0.87169999 0.1418
-0.1075 -0.69999999 -0.2471
0.1724 -0.48210001 -0.16240001
0.114 -0.88410002 -0.2084
-0.2291 -0.36989999 0.01406
0.176 0.33340001 0.21349999
0.116 -0.3037 0.19670001
0.20119999 0.56569999 -0.1143
0.01615 -0.32910001 0.22750001
-0.13959999 0.54140002 -0.19329999
-0.034979999 0.1208 0.26750001
-0.2719 0.25209999 -0.077150002
-0.19670001 -0.07243 0.132
0.22939999 -0.001604 -0.094980001
0.25080001 0.085600004 -0.083939999
-0.04332 0.5147 -0.243
0.2024 -0.32370001 -0.106
-0.072109997 0.56959999 -0.21709999
0.064989999 -0.63980001 -0.25479999
-0.2721 -0.73729998 0.01159
0.22750001 -0.182 0.0107
-0.05088 -0.95459998 0.1399
-0.15989999 0.54949999 0.1743
0.27590001 0.29190001 -0.043340001
-0.2791 0.3188 0.01032
-0.2342 -0.88679999 -0.1269
0.087669998 -0.85699999 -0.25479999
0.2244 -0.0022789999 0.1077
-0.1187 0.88389999 -0.055100001
-0.03407 -0.56019998 0.2455
-0.1117 0.39160001 -0.2465
-0.1653 -0.86330003 -0.20819999
-0.24959999 0.0033829999 0.01622
-0.0054390002 0.99470001 -0.092610002
0.048080001 -0.67320001 0.26249999
-0.0053719999 -0.86009997 0.2692
-0.1561 0.35159999 0.2263
-0.12989999 -0.852 -0.2375
-0.2076 -0.75400001 0.17560001
0.092950001 0.1045 -0.2507
0.147 0.2051 -0.23899999
0.18000001 -0.095729999 0.1479
-0.1728 0.66540003 -0.058740001
0.1227 0.86390001 0.047990002
0.021980001 0.82130003 -0.1161
0.2667 0.1719 -0.077569999
-0.19589999 -0.74510002 -0.1908
-0.2816 0.2485 0.01066
0.22490001 0.099919997 0.1437
0.22229999 -0.044829998 0.091839999
0.1974 0.25389999 -0.2024
0.1708 -0.1112 -0.15710001
-0.208 0.6128 -0.02715
-0.2723 0.1864 -0.056510001
0.080459997 0.28639999 0.26949999
0.1442 0.514 -0.1998
0.0054429998 0.99650002 -0.02719
-0.2032 0.3136 0.1928
-0.1188 0.4271 -0.2384
-0.01633 0.9939 0.1089
0.2243 0.4276 -0.1432
0.2185 -0.3364 0.067780003
-0.1367 -0.9339 -0.1083
0.2001 -0.2034 0.1086
-0.1745 -0.47260001 -0.1586
-0.1076 -0.62940001 -0.23630001
0.040520001 -0.62650001 0.2559
-0.26300001 -0.87029999 0.0418
0.1038 -0.01529 -0.2233
-0.1769 0.1506 0.20919999
-0.037799999 0.62840003 -0.199
-0.1237 0.66619998 -0.134
-0.1009 -0.75760001 -0.25220001
-0.045159999 -0.063660003 -0.23379999
0.027210001 0.99629998 0.032650001
-0.15790001 0.4605 0.20640001
0.17479999 -0.94349998 0.15899999
-0.084229998 0.82270002 -0.084250003
-0.2005 -0.90829998 0.026839999
0.26140001 0.4305 0.045899998
0.2234 -0.28189999 0.035950001
-0.20280001 -0.68080002 0.17479999
0.1928 -0.63630003 0.1769
0.097319998 -0.1929 -0.2052
0.1442 -0.91850001 -0.12639999
0.22679999 -0.35640001 -0.02698
0.079020001 -0.4436 -0.2193
0.15109999 0.64600003 0.1194
0.048950002 -0.79759997 -0.2665
-0.14219999 -0.3779 0.18009999
0.062650003 -0.1164 -0.2238
-0.04645 -0.76789999 -0.26750001
0.1353 0.1559 -0.24079999
0.04301 0.32969999 -0.27360001
-0.064839996 -0.3953 -0.2225
0.1937 0.53710002 0.14030001
0.14839999 0.61559999 0.14839999
0.25150001 -0.60720003 -0.049430002
-0.2201 -0.92580003 -0.118
0.207 0.1302 0.1749
-0.070289999 -0.2146 0.21610001
0.058400001 0.80510002 0.097149998
-0.048909999 -0.1874 0.22239999
-0.25080001 -0.57160002 0.0080549996
-0.2256 -0.49290001 -0.074940003
0.02142 -0.001678 -0.248
-0.044229999 0.86750001 -0.1242
0.26589999 -0.81940001 -0.048920002
0.23109999 -0.045299999 -0.069530003
-0.1664 0.54750001 -0.17020001
-0.0109 0.5413 -0.23899999
-0.15360001 -0.89200002 0.21430001
0.1349 0.2755 0.2475
-0.089769997 -0.01087 -0.23
-0.024839999 0.3017 -0.2784
0.04919 0.57480001 -0.22139999
-0.17990001 -0.63459998 0.1902
0.1367 0.089649998 0.2287
0.2233 -0.39140001 0.062180001
-0.22920001 -0.46259999 0.051750001
0.054049999 -0.8466 0.26390001
-0.1734 -0.1892 -0.1468
0.2168 0.3531 0.1684
-0.18449999 0.214 -0.21089999
0.26730001 0.3779 0.04758
-0.016179999 0.81 -0.1127
-0.25220001 0.2282 -0.1229
-0.2771 0.2157 0.03802
0.1443 -0.061640002 -0.1893
0.16339999 0.2701 -0.2282
-0.1194 -0.79210001 0.24349999
-0.072209999 -0.98879999 0.080410004
-0.16590001 0.2212 0.2254
-0.16339999 -0.1246 0.1646
-0.2339 0.055539999 0.1118
0.1698 -0.65369999 0.20200001
-0.2255 0.223 -0.16590001
-0.1626 -0.15629999 -0.1626
0.1024 0.41139999 -0.24789999
-0.1944 0.44870001 -0.17749999
-0.24860001 0.4822 0.06476
0.2062 -0.04896 0.1251
-0.1018 -0.96210003 0.027249999
-0.2316 -0.94220001 -0.052960001
-0.2023 -0.31819999 0.106
-0.059250001 -0.35620001 0.2217
0.1047 0.4567 0.2388
0.2485 -0.78119999 0.1081
-0.15710001 -0.98519999 -0.065030001
0.037799999 -0.37830001 -0.2265
-0.18350001 -0.5205 0.15710001
-0.059909999 0.32460001 -0.2719
0.01596 -0.2419 0.2261
0.1495 -0.53649998 -0.1927
0.26989999 -0.852 0.01056
0.03246 0.3136 0.27630001
0.054189999 0.2701 -0.27579999
-0.1892 0.58740002 0.1149
0.083230004 0.36520001 0.26120001
0.064240001 0.83749998 -0.12710001
-0.1855 0.04465 -0.1805
-0.005324 0.2484 -0.2823
-0.076269999 0.99510002 0.032699998
0.2376 -0.62809998 0.1034
-0.1859 -0.34 0.132
0.1709 0.52539998 -0.1759
0.1469 0.35159999 -0.2334
-0.108 -0.59579998 -0.23
-0.01058 0.92390001 0.1283
-0.099859998 -0.95560002 0.2007
0.22229999 0.5115 0.1101
-0.27219999 -0.76550001 -0.01165
0.029829999 -0.588 -0.25080001
0.2193 0.55669999 0.07942
-0.1723 -0.36210001 -0.15099999
0.161 -0.3951 -0.1665
-0.1603 0.03088 0.198
0.168 -0.2692 -0.1523
-0.2256 -0.3892 -0.04862
-0.18189999 -0.26359999 0.13519999
-0.17829999 0.65810001 0.056060001
0.0051509999 0.0032619999 0.2509
-0.27160001 0.1391 -0.022129999
-0.026799999 -0.28560001 0.2254
0.1155 -0.79759997 -0.245
-0.062729999 -0.25650001 -0.2191
-0.13789999 0.00024699999 -0.20810001
0.074579999 0.89700001 0.1067
-0.21950001 0.46759999 -0.1383
-0.17039999 0.4077 -0.2079
0.212 0.52780002 -0.1222
-0.22220001 -0.884 0.14659999
0.21070001 0.02042 -0.1407
-0.007886 -0.95529997 0.1163
0.2034 -0.28560001 0.1019
-0.1648 0.016969999 -0.19140001
0.2766 0.2485 -0.048870001
-0.1847 -0.01471 -0.1636
0.2221 -0.1219 -0.06594
-0.1601 0.69220001 -0.038249999
0.1652 -0.031459998 -0.1795
-0.1533 -0.93300003 0.027480001
-0.1099 0.41190001 0.2447
-0.089539997 -0.90890002 -0.2413
-0.2341 -0.026149999 -0.07237
-0.13169999 0.72610003 0.048009999
0.2145 -0.50950003 -0.1075
-0.15350001 -0.78420001 -0.2237
0.20110001 -0.94940001 -0.0072679999
-0.2624 0.08681 -0.030920001
0.0050209998 -0.61309999 0.25729999
0.2062 -0.2474 -0.09341
0.2256 -0.60750002 -0.124
0.081110001 -0.77029997 0.25999999
-0.1089 0.90210003 0.071180001
-0.20559999 0.094740003 -0.1682
-0.1981 -0.47099999 0.1277
-0.2529 -0.60210001 -0.032260001
-0.12890001 -0.95370001 0.1
-0.2559 0.48190001 -0.01102
-0.2103 -0.85869998 -0.1675
0.05951 0.2485 0.27469999
0.25369999 -0.84119999 -0.091559999
0.2132 -0.62940001 -0.1485
0.03252 -0.68339998 -0.2656
-0.2331 0.17219999 0.1498
0.000119 0.3917 -0.2723
0.1939 -0.9084 -0.1595
-0.124 0.1724 -0.2475
0.1251 0.7396 -0.041110002
-0.059769999 0.096019998 0.26010001
0.2133 0.099200003 -0.1582
0.1637 -0.2198 -0.1587
-0.01053 -0.072609998 -0.237
0.1257 -0.3346 -0.19069999
0.2599 -0.77029997 -0.081299998
-0.1767 0.4786 -0.18709999
-0.20119999 -0.074819997 -0.12549999
-0.099739999 0.46160001 -0.2397
0.06312 -0.42309999 0.2247
0.2113 -0.067139998 -0.1096
0.222 -0.69440001 -0.15180001
0.1749 0.0050360002 0.1798
-0.01109 -0.90179998 0.2034
-0.01633 -0.99049997 -0.021779999
-0.21089999 -0.38909999 -0.091990001
-0.2104 -0.37819999 0.091770001
-0.1574 0.64749998 0.1102
-0.02706 -0.87900001 -0.26519999
0.0163 0.183 -0.2773
-0.01105 0.45699999 -0.26140001
0.082400002 -0.87180001 0.25549999
0.234 -0.065860003 0.035089999
-0.06072 0.71869999 0.1319
0.05869 0.5625 0.2251
0.075000003 0.37329999 -0.26370001
0.2172 -0.91890001 -0.1318
-0.03373 -0.65359998 0.26140001
0.2164 0.35690001 -0.1682
-0.040569998 0.4346 -0.2615
0.16869999 -0.71600002 -0.21160001
0.17829999 0.45500001 -0.19220001
-0.2687 -0.70529997 -0.026760001
-0.132 -0.88889998 -0.1804
0.2238 -0.17 0.041170001
-0.0048059998 -0.50340003 0.2395
0.15710001 -0.9853 -0.065049998
-0.25009999 -0.61250001 0.06515
0.2156 -0.84109998 0.1617
-0.1943 0.0041220002 0.15700001
0.1926 0.62330002 -0.070649996
0.2432 0.2809 -0.1415
-0.1159 0.95819998 -0.052049998
-0.1953 0.55010003 0.1322
0.26120001 0.2068 0.099030003
-0.1074 0.76969999 -0.042429999
-0.059519999 -0.69989997 -0.26390001
0.25099999 0.02396 0.035130002
0.27790001 0.1858 -0.01355
0.23379999 0.37889999 -0.1417
0.02746 0.85339999 0.1302
0.078790002 0.18880001 -0.2678
0.03249 0.074330002 -0.25999999
0.03596 -0.97799999 -0.072959997
-0.2274 -0.14380001 0.027039999
-0.12809999 0.91289997 0.015969999
-0.2298 0.33700001 -0.1541
0.13869999 0.01483 -0.21089999
-0.2212 -0.111 -0.069969997
0.1233 0.56840003 -0.1936
-0.011 -0.96960002 -0.20559999
0.1805 0.60960001 -0.1115
-0.2317 -0.62919998 -0.1188
-0.095720001 0.22130001 0.26320001
-0.2246 0.1145 -0.1489
0.08986 -0.28009999 -0.20829999
-0.21870001 0.0112 -0.127
-0.055599999 0.37630001 0.26710001
0.02719 0.1068 0.26629999
-0.037950002 -0.39449999 0.2273
0.037519999 -0.96280003 -0.1504
0.037640002 0.68940002 -0.1622
0.1807 -0.3019 -0.13770001
-0.078089997 -0.075439997 0.2228
-0.2044 0.2333 -0.1939
0.1392 -0.4709 -0.1893
0.25049999 0.48010001 -0.050390001
0.088129997 -0.1328 -0.2121
-0.1042 0.79900002 0.040600002
-0.27059999 -0.83569998 0.01063
-0.1003 -0.89230001 -0.2105
0.115 0.29730001 -0.25490001
0.1129 -0.6785 0.2418
-0.09426 0.75590003 0.077129997
-0.2358 -0.48750001 -0.02128
0.17110001 -0.97369999 -0.094690003
0.2277 -0.94389999 -0.064329997
0.1963 0.63660002 0.02424
0.094439998 0.97280002 -0.084030002
0.1189 -0.2305 -0.19410001
0.0054100002 -0.43799999 0.2339
0.2177 -0.40549999 -0.077299997
-0.096469998 0.6717 -0.1504
-0.059719998 -0.54159999 -0.23890001
0.22849999 -0.4598 -0.05452
0.2401 -0.57160002 0.072899997
0.1401 0.52590001 0.19930001
0.22310001 -0.1874 -0.044
0.1228 0.39930001 0.241
-0.1754 0.2854 -0.2183
0.2377 -0.89969999 -0.1073
0.097280003 -0.95279998 0.20469999
0.1881 -0.9084 0.1127
0.108 0.2485 -0.259
-0.04857 0.44929999 0.25799999
0.091540001 -0.65649998 -0.24789999
0.090319999 0.70880002 0.1223
0.065030001 -0.87910002 -0.26019999
-0.12710001 0.93470001 -0.015869999
0.03269 0.99400002 -0.09804
0.2024 -0.53380001 -0.13609999
-0.045120001 -0.95130002 -0.12819999
-0.14820001 0.26359999 -0.2402
0.1432 -0.84109998 -0.2298
-0.1406 0.112 0.23029999
-0.1434 -0.61290002 0.21359999
-0.2261 -0.6239 0.12909999
-0.2201 -0.23639999 -0.05889
-0.054260001 0.3953 -0.26530001
-0.01942 0.94999999 -0.1259
0.2334 -0.87540001 0.076200001
0.23999999 0.051059999 0.094899997
-0.26550001 -0.8682 -0.037939999
-0.20119999 -0.4025 0.1164
0.2342 -0.01398 0.078019999
0.2471 -0.74849999 -0.1128
-0.1987 -0.28009999 -0.1126
0.1167 -0.74330002 -0.2455
0.2238 -0.72909999 0.15360001
-0.2298 -0.059920002 -0.067910001
-0.081459999 -0.97359997 0.17560001
0.17209999 -0.2511 0.1459
-0.02744 0.6706 -0.1767
-0.093520001 -0.2656 -0.20649999
0.1114 0.23029999 0.2568
-0.1957 0.13249999 -0.19059999
-0.042649999 0.69919997 -0.1539
0.22679999 -0.2419 -0.01061
-0.26109999 0.06143 -0.0072499998
-0.103 -0.98199999 -0.018379999
-0.1769 0.48769999 0.1841
0.15629999 -0.92640001 0.099359997
0.26589999 0.3028 -0.087839998
0.2156 0.1724 0.1726
-0.01046 -0.58569998 0.25279999
0.1609 0.57389998 -0.1609
-0.041239999 -0.66280001 -0.26199999
0.25560001 -0.82840002 0.088059999
0.092179999 0.50440001 0.23190001
0.18170001 0.083630003 0.192
0.17659999 0.32440001 -0.2142
0.1679 -0.48030001 0.1679
0.1745 0.67409998 -0.02544
-0.078479998 0.016890001 -0.2404
-0.26699999 -0.66659999 0.0074809999
-0.2141 -0.71960002 -0.1656
-0.1655 -0.67079997 -0.2086
-0.1329 0.32339999 -0.24529999
-0.1825 -0.442 -0.14470001
0.1025 0.7705 -0.052749999
-0.1849 -0.2255 0.1309
0.1911 0.57669997 0.1208
-0.23379999 -0.449 -0.01086
0.13500001 0.3351 0.2431
-0.1099 -0.4436 0.2066
0.0042730002 -0.93989998 -0.23999999
0.015690001 -0.051369999 -0.2395
-0.018209999 -0.98860002 -0.15000001
0.037950002 0.41159999 -0.26550001
0.22750001 -0.1656 -0.01616
-0.053920001 0.1455 -0.2683
0.1987 -0.43399999 0.1228
0.1113 0.058320001 -0.23459999
-0.059909999 -0.99049997 -0.01633
-0.2413 -0.54229999 -0.043079998
0.1149 0.76840001 0.01409
-0.1247 0.85839999 0.04445
-0.229 -0.1246 -0.024250001
0.25760001 -0.61309999 0.01035
-0.20829999 -0.852 0.1707
0.2186 0.58840001 -0.02358
0.031890001 0.76480001 -0.1135
-0.26159999 -0.68839997 0.067280002
-0.1631 -0.5011 0.1749
-0.2376 0.0087209996 -0.081160001
0.1073 -0.072640002 -0.2114
0.2165 -0.78479999 0.1628
0.1514 -0.13079999 0.1723
0.1181 -0.53689998 0.214
0.1663 -0.28529999 0.156
-0.1939 0.3292 -0.20020001
0.17739999 0.63419998 0.092139997
0.1807 0.39289999 0.20190001
0.1076 0.35159999 -0.2527
0.059119999 -0.33450001 0.2212
-0.2006 0.6171 -0.05895
-0.2262 -0.29100001 -0.02146
0.1001 0.58810002 0.19679999
0.20280001 -0.391 0.1117
-0.1816 -0.76490003 0.2027
-0.2279 0.55440003 0.05931
0.23029999 -0.88150001 -0.13680001
0.1322 -0.61549997 -0.2227
-0.1821 -0.9307 0.1285
-0.1251 0.69389999 -0.104
-0.19059999 -0.4073 -0.1311
-0.1706 -0.2401 -0.14929999
0.06154 0.60399997 -0.20559999
0.18279999 -0.2088 -0.13410001
-0.1209 -0.37940001 -0.1965
-0.22139999 -0.26370001 0.054000001
0.12819999 -0.97899997 0.1239
0.1594 -0.32010001 0.1644
-0.1353 0.051240001 -0.2216
-0.1417 0.5693 -0.17900001
-0.14470001 -0.75279999 -0.2314
-0.2033 -0.9569 -0.089979999
-0.25580001 0.072190002 -0.061919998
-0.048780002 -0.25279999 0.2216
0.2193 0.019649999 0.12890001
-0.1337 0.091760002 -0.23109999
-0.12530001 0.82550001 0.03272
-0.030850001 0.84249997 0.13240001
0.1345 -0.77569997 0.2368
-0.2122 -0.16230001 -0.082979999
0.1141 0.9102 0.061409999
-0.22149999 0.1925 -0.1679
-0.1752 -0.90979999 -0.14830001
0.22409999 0.052889999 -0.13240001
-0.01075 0.16680001 -0.2766
-0.2022 -0.1054 0.1163
-0.2244 -0.583 0.1159
-0.073150001 -0.662 0.25650001
0.02478 -0.9781 0.081859998
0.07626 -0.99040002 0.1035
0.2395 -0.53390002 0.045940001
-0.054110002 -0.4874 -0.2315
0.27000001 0.27559999 0.080700003
-0.026900001 -0.60189998 -0.2536
-0.1904 0.1102 0.1917
-0.1117 0.78200001 0.01054
0.2577 -0.63480002 -0.037629999
-0.2642 -0.80299997 0.064989999
-0.058800001 0.73079997 -0.1239
0.094939999 -0.44549999 0.2129
-0.1424 0.69660002 0.074950002
0.153 0.30840001 -0.2342
0.035670001 -0.27680001 0.22400001
0.0053369999 -0.20379999 -0.228
-0.2608 0.44980001 -0.027179999
0.24879999 0.2158 0.13
-0.25650001 0.058309998 0.038389999
-0.025869999 0.7852 0.109
0.098049998 0.99430001 -0.02179
0.1309 0.8556 0.0188
0.2133 -0.67449999 0.1595
-0.104 0.3461 0.25470001
-0.07508 -0.96340001 -0.074390002
-0.2145 -0.03971 0.113
0.117 -0.6455 -0.23540001
-0.2045 0.04662 -0.15620001
-0.2331 0.15449999 -0.14659999
-0.2421 0.041919999 0.085869998
-0.099359997 -0.65799999 -0.2449
-0.1455 -0.57489997 0.2027
-0.2022 -0.28279999 0.1048
0.25780001 -0.722 0.085110001
0.19 -0.18009999 0.12530001
0.01281 0.63050002 0.20110001
0.27160001 0.12819999 -0.01127
0.062479999 -0.6099 -0.2502
0.078720003 -0.41330001 -0.21780001
0.2015 -0.5122 0.1313
-0.1243 -0.86839998 0.2386
-0.1046 0.99000001 0.06577
-0.26679999 0.2376 0.08822
0.14839999 0.66960001 -0.1009
0.264 -0.8574 -0.054079998
-0.1688 -0.182 0.1529
-0.2209 -0.5966 -0.12899999
0.075029999 0.1399 -0.26359999
-0.2164 0.50629997 0.12630001
-0.2137 -0.67629999 -0.15979999
0.1205 0.70700002 0.093819998
0.1354 -0.15809999 0.18359999
0.2069 -0.76740003 -0.1761
0.05494 -0.4594 -0.22849999
0.25999999 -0.63990003 0.027039999
0.2456 0.016550001 -0.064139999
-0.1433 0.15260001 -0.2353
-0.087159999 0.99479997 -0.027249999
-0.2475 0.509 -0.02139
-0.01608 -0.17649999 0.227
-0.01454 0.47909999 0.2561
0.1243 -0.94279999 0.076609999
0.2728 0.37630001 -0.01196
0.1157 0.51709998 0.21709999
-0.1097 0.1434 -0.24969999
-0.042229999 -0.093390003 -0.2297
-0.071379997 -0.97729999 0.052579999
-0.26719999 0.13150001 0.047460001
-0.1645 -0.28279999 0.1583
-0.01087 0.17219999 0.27680001
0.1556 0.44949999 -0.2111
0.2615 -0.66640002 -0.048519999
0.23469999 0.1761 0.14820001
-0.027000001 0.37900001 -0.27059999
-0.28049999 0.29730001 -0.01054
0.0053940001 -0.88730001 0.2264
-0.1428 0.83130002 0.0050530001
0.1487 0.71380001 -0.001542
0.06436 -0.99010003 -0.0060589998
0.19400001 -0.95829999 -0.1079
-0.1279 -0.2128 -0.1875
0.199 0.301 0.199
-0.2123 -0.3364 -0.082759999
0.27849999 0.31119999 -0.02069
-0.27149999 0.3355 -0.05438
-0.149 -0.55659997 -0.1974
-0.1489 0.435 -0.2191
-0.01584 -0.55309999 -0.2467
0.090810001 -0.96530002 0.04899
0.098729998 0.82270002 0.066339999
-0.2577 -0.63480002 0.037629999
0.080250002 0.30270001 -0.26899999
0.13249999 0.080119997 -0.2295
0.01534 -0.68409997 0.26750001
0.1122 0.97280002 0.059009999
-0.2393 0.51980001 -0.05993
0.22589999 0.50910002 -0.1023
-0.26840001 -0.71069998 0.03215
-0.23989999 -0.86769998 0.1125
0.064479999 -0.5966 0.2475
0.06036 -0.9777 0.1251
0.059530001 0.82560003 0.1244
0.05889 -0.1869 0.22
0.14910001 0.1163 0.22480001
-0.16949999 0.64810002 -0.091399997
-0.20209999 -0.89520001 0.06865
-0.038240001 0.58719999 -0.2176
0.1131 0.54140002 -0.2112
-0.2499 0.368 0.1098
0.1111 0.0021869999 0.2233
-0.054099999 -0.017929999 0.2397
-0.1663 0.59570003 -0.1397
0.1295 -0.95859998 0.1781
-0.01292 -0.1515 -0.2288
0.25510001 0.3301 -0.1074
-0.2202 -0.045260001 -0.096780002
-0.061549999 0.19220001 -0.27219999
0.2122 0.31900001 -0.18009999
0.2369 -0.71600002 -0.1345
-0.23379999 0.37889999 0.1417
0.049559999 -0.95039999 0.1469
-0.1637 0.083250001 -0.2067
0.02678 0.48730001 -0.2527
-0.1568 0.6947 0.042599998
-0.01596 -0.2419 0.22579999
-0.2651 0.28099999 -0.09189
0.070430003 0.81599998 -0.09155
0.2631 0.2431 -0.096440002
-0.033070002 0.15000001 0.27160001
0.2395 0.2158 -0.1473
0.064939998 -0.8193 0.2638
0.098849997 0.2014 0.2608
-0.126 0.74599999 0.021400001
-0.049169999 -0.9303 0.17569999
-0.2308 0.2647 0.1604
0.15719999 -0.74870002 -0.2218
0.13689999 0.83770001 -0.03889
0.1689 -0.51990002 -0.17380001
-0.1851 0.2467 -0.21170001
-0.26409999 -0.80839998 -0.064999998
0.1724 -0.68279999 0.2041
-0.22750001 -0.2419 -0.0052999998
0.1119 0.6329 0.1655
0.22059999 -0.4382 -0.075149998
0.1867 -0.82139999 0.197
0.01595 -0.8466 -0.2696
0.048670001 -0.039859999 -0.23710001
-0.1789 -0.92500001 0.01578
0.24439999 -0.66729999 -0.1043
0.1389 -0.86790001 -0.2189
-0.090279996 0.19 -0.26320001
8.8000001e-05 0.57190001 -0.2287
-0.244 -0.84289998 -0.115
-0.26440001 -0.74870002 0.070100002
0.035020001 0.58759999 0.2176
-0.097120002 0.019819999 0.233
0.096699998 0.167 0.25830001
-0.219 0.25569999 -0.176
-0.2341 0.093630001 0.12819999
0.1798 0.18870001 -0.212
0.27489999 0.34619999 -0.01595
0.020439999 -0.52130002 0.24070001
0.039810002 -0.28009999 -0.2235
-0.2033 -0.2133 -0.1014
-0.0036929999 0.3847 0.2728
0.2149 -0.95990002 -0.043590002
0.245 -0.01299 -0.027279999
0.1761 0.51279998 0.176
0.075620003 0.50950003 -0.23720001
0.2554 0.1724 -0.1044
-0.1139 0.07948 0.2374
0.1191 0.87480003 -0.05531
0.199 -0.7001 0.1832
0.2071 -0.1693 0.09426
-0.043510001 0.99629998 0.0054469998
0.2543 0.035780001 -0.022019999
-0.072020002 0.54259998 -0.2278
0.096440002 -0.95599997 -0.077880003
-0.26199999 -0.70889997 -0.073569998
-0.1007 -0.98900002 0.1151
0.024839999 -0.87410003 0.25040001
0.2359 0.53579998 -0.049029998
0.1204 0.97570002 -0.03867
-0.072930001 -0.5104 -0.229
0.040169999 0.97060001 0.1202
0.2438 0.1461 0.1246
0.065119997 0.44440001 -0.25659999
0.1373 -0.21520001 0.1802
-0.085649997 0.46610001 0.24420001
0.1079 -0.9777 0.1033
-0.22759999 0.56870002 0.02169
0.1681 -0.91900003 0.048930001
-0.085919999 -0.36149999 0.21179999
0.1461 0.19069999 0.2378
0.2511 -0.57590002 0.0041510002
0.085160002 0.64910001 0.1707
0.22750001 -0.49649999 0.071359999
-0.1021 -0.54170001 0.2226
-0.1031 0.58710003 0.19509999
-0.1838 -0.58219999 -0.1737
0.085560001 0.56269997 0.2146
0.01054 0.71689999 -0.1462
0.1512 -0.93620002 0.02115
0.20819999 -0.1062 0.1025
-0.1194 0.98909998 -0.034449998
-0.06983 0.82090002 0.09454
0.0053209998 -0.63230002 -0.2615
0.08083 0.76410002 -0.085879996
-0.091530003 0.78179997 0.064879999
-0.23899999 0.51679999 0.065080002
-0.2137 0.1235 0.1652
0.01619 0.8858 0.1296
0.1971 0.42039999 0.1814
0.2369 -0.52569997 -0.054079998
-0.18979999 0.65189999 -0.01055
0.096089996 0.91780001 -0.086180001
-0.040180001 -0.81389999 0.26719999
-0.097259998 0.1397 0.25400001
-0.1682 -0.2419 0.1525
0.15700001 -0.35100001 -0.167
-0.1666 -0.93370003 -0.1246
-0.059719998 -0.98500001 0.1105
0.15099999 0.2432 -0.2376
0.23649999 -0.86989999 0.1144
-0.016070001 0.77640003 -0.1122
0.2642 -0.89459997 -0.005111
-0.23360001 -0.75940001 0.1416
-0.2348 -0.5776 0.088420004
0.24429999 -0.62339997 -0.085670002
0.139 0.56770003 0.182
0.080480002 -0.8994 0.2489
0.036979999 0.83130002 -0.1381
-0.081689999 -0.2369 -0.2111
0.06532 -0.38859999 -0.2219
-0.2079 0.16339999 -0.1813
0.0041570002 -0.3626 0.2299
-0.2395 -0.90140003 0.021509999
-0.2 0.35510001 -0.1899
-0.021709999 0.036049999 -0.25490001
0.2263 -0.6128 0.1244
0.1778 0.22759999 0.2165
-0.2296 0.55839998 -0.03802
-0.25409999 0.2376 0.1191
0.038180001 -0.65600002 -0.2613
0.041219998 -0.060770001 0.23450001
0.1875 -0.46090001 0.139
-0.1586 -0.4021 -0.1691
0.2475 0.509 0.02139
0.1574 0.26640001 0.233
0.069739997 0.73199999 0.1178
-0.14920001 0.31900001 0.2359
-0.1024 -0.65100002 0.24240001
0.2658 -0.77029997 0.054280002
-0.039999999 -0.71020001 0.26730001
0.23289999 0.52200001 0.077
-0.032159999 0.091119997 0.26300001
-0.23280001 -0.056449998 0.059489999
-0.2418 -0.72149998 -0.1239
-0.15880001 0.1208 -0.2182
0.2307 -0.1164 0.01585
0.2085 0.23029999 0.1873
-0.2397 -0.70480001 0.1267
-0.1344 0.22679999 0.2465
0.09736 -0.1874 0.2053
-0.2647 0.18870001 -0.086290002
0.1207 0.1833 -0.2499
0.1313 -0.90630001 -0.14820001
0.2061 0.1531 -0.1815
0.026839999 -0.97140002 -0.099590003
0.1996 0.331 0.1945
0.2397 -0.68629998 0.1215
0.05838 0.73089999 -0.1239
0.2335 -0.48710001 -0.0381
0.065959997 -0.1201 0.22220001
0.2403 0.05015 -0.093879998
0.081029996 0.48249999 -0.24259999
-0.198 0.34110001 0.1947
-0.2005 -0.4729 -0.1249
0.1028 0.37920001 -0.2516
0.2084 0.48730001 -0.14569999
0.2606 0.079609998 0.032609999
-0.2471 0.1345 0.1129
-0.1329 0.50010002 -0.214
0.2606 0.1023 0.059629999
-0.25619999 -0.59990001 7.8999998e-05
0.24600001 0.2422 0.1388
0.051460002 0.133 0.2669
-0.071510002 -0.93519998 -0.227
0.08918 0.9817 0.089170001
0.212 0.04905 0.1471
-0.2784 0.19679999 0.0175
-0.20190001 -0.81919998 0.1805
-0.2651 0.3576 0.07587
-0.1719 -0.7252 -0.2096
-0.12720001 0.74129999 -0.03252
0.23289999 -0.08382 -0.02716
0.2298 -0.38319999 -0.01475
0.1743 0.043710001 0.19
0.22849999 -0.3019 0.0053739999
0.1937 -0.4765 -0.1344
-0.048500001 -0.37290001 -0.22480001
0.032590002 -0.122 -0.2281
0.22 -0.55849999 -0.1131
0.2288 0.4576 -0.1283
0.1497 -0.1874 -0.17110001
0.1653 -0.14920001 -0.1602
0.01091 -0.99049997 0.021810001
-0.2296 -0.43270001 0.036010001
-0.1512 -0.48649999 -0.182
0.14569999 -0.60640001 0.2102
-0.1383 0.59289998 0.169
-0.032129999 0.058449998 0.25740001
-0.1601 -0.88990003 -0.16429999
-0.085660003 -0.41100001 0.21439999
-6.0000002e-06 -0.30180001 0.22840001
0.13330001 -0.86470002 0.2353
0.26609999 0.40090001 -0.043499999
0.088370003 0.03249 0.2393
-0.25350001 0.36250001 -0.1025
0.027009999 0.97289997 -0.1238
-0.02101 -0.92619997 -0.2476
-0.12729999 0.90200001 -0.02679
0.075680003 -0.55260003 -0.23549999
